# .PCD v0.7 - Point Cloud Data file format
VERSION 0.7
FIELDS x y z
SIZE 4 4 4
TYPE F F F
COUNT 1 1 1
WIDTH 614
HEIGHT 1
VIEWPOINT 0 0 0 1 0 0 0
POINTS 614
DATA ascii
-1.3927985 -22.854366 -18.253096
7.6855068 -33.560738 -45.512005
7.6318445 -33.712536 -45.415386
7.5506105 -33.856354 -45.282017
7.4552932 -34.008774 -45.141857
7.0460653 -35.625366 -43.646442
7.5358648 -36.51873 -42.702034
7.8572426 -36.66695 -42.400711
8.2381897 -36.89341 -42.148026
8.9976215 -36.957256 -41.784725
11.199194 -37.426586 -40.601524
11.229498 -37.463066 -40.639786
12.346547 -37.504322 -43.149891
12.636159 -37.692822 -42.887306
12.312619 -37.815914 -42.983604
12.282166 -37.912022 -42.89959
12.270901 -37.958702 -42.865082
12.615244 -37.950466 -42.747898
12.173777 -38.293388 -42.576401
12.16219 -38.338047 -42.541061
12.151247 -38.389969 -42.503357
12.138554 -38.438576 -42.465034
12.498201 -38.461498 -42.345806
19.723751 6.3620129 -46.06974
18.373508 5.8886585 -46.11364
18.285736 5.7975941 -46.025494
7.6348586 -33.562904 -45.102936
7.5862446 -33.747353 -45.004261
7.0555816 -35.101379 -44.092609
7.014699 -35.245232 -44.013859
7.0013943 -35.298138 -43.986626
7.1201463 -35.821568 -43.431274
7.0990515 -35.922176 -43.382111
7.5936332 -36.475719 -42.660065
7.6081033 -36.517982 -42.662785
7.625782 -36.559689 -42.668922
7.8960843 -36.686516 -42.373978
8.220685 -36.800518 -42.153969
8.9105024 -37.00198 -41.770443
8.9325314 -37.039612 -41.784592
9.2936907 -37.135765 -41.630859
11.299838 -37.484104 -40.645477
12.517447 -37.669643 -42.960026
12.154711 -37.986671 -42.841724
12.482123 -37.958641 -42.780224
12.47389 -38.004734 -42.749226
12.461635 -38.047295 -42.713226
12.094138 -38.225712 -42.6605
12.062707 -38.325645 -42.576202
12.019203 -38.465546 -42.448792
12.371481 -38.375832 -42.434139
24.814726 -8.9644108 -67.444946
20.254597 6.2951961 -45.823349
19.260874 6.2686567 -46.13459
17.715498 5.4507694 -45.91695
7.5385661 -33.596218 -45.156616
7.6171541 -33.816788 -45.1413
7.5635257 -33.937435 -45.065659
7.481689 -34.031216 -44.976654
7.4435201 -34.080597 -44.933151
7.4224749 -34.125507 -44.905193
7.401176 -34.166882 -44.876999
7.3236618 -34.333103 -44.759876
7.2637558 -34.423756 -44.6884
7.2124915 -34.514217 -44.624268
7.1864481 -34.601578 -44.579906
7.0682616 -35.394119 -43.831181
7.1028347 -35.511295 -43.827118
7.1818132 -35.914146 -43.339748
7.1889091 -35.996521 -43.323502
7.3533888 -36.265743 -42.953625
8.1602182 -36.776154 -42.181652
8.8123236 -36.956005 -41.848671
9.1368217 -37.03006 -41.702
9.1216249 -37.074741 -41.671734
11.227805 -37.421196 -40.610935
11.259098 -37.44215 -40.643497
11.564449 -37.575775 -40.463829
12.087422 -38.049446 -42.83437
12.415753 -37.931202 -42.84404
12.396431 -37.983376 -42.798859
12.723558 -37.864693 -42.821819
12.052896 -38.233429 -42.721096
12.033531 -38.280449 -42.669048
12.349203 -38.13166 -42.66951
12.681176 -38.005672 -42.697109
11.998783 -38.384663 -42.586143
12.319823 -38.231613 -42.592472
12.301763 -38.284481 -42.548286
12.288819 -38.338051 -42.509819
12.623801 -38.210789 -42.534908
11.928762 -38.605263 -42.41552
24.565426 -9.2951975 -67.260887
18.950533 6.1774831 -46.163876
17.11997 4.8846483 -45.610958
16.948624 4.6670122 -45.441692
16.517262 4.2104297 -44.995564
-0.33145365 -23.199125 -17.68668
7.3838487 -36.283928 -42.95974
7.7671309 -36.6199 -42.39677
8.1536264 -36.702034 -42.289803
8.4582682 -36.870926 -42.112965
8.6966915 -36.949608 -41.899673
8.9847031 -36.963516 -41.760403
9.0155067 -37.022488 -41.772942
9.2996559 -37.036095 -41.63448
9.307456 -37.069771 -41.632671
9.3341503 -37.091553 -41.651459
11.997156 -38.1283 -42.721657
12.481874 -37.791157 -42.973042
12.431352 -37.9272 -42.873539
12.660489 -37.925339 -42.756844
12.314602 -38.212311 -42.653965
11.881579 -38.583809 -42.456371
12.259303 -38.357357 -42.546391
12.224858 -38.429924 -42.485462
12.577743 -38.250629 -42.538239
12.523324 -38.39909 -42.426189
12.488598 -38.47942 -42.359459
24.500586 -9.3426485 -67.239937
24.29335 -9.2450495 -67.065254
19.814962 6.3218856 -45.981468
16.833761 4.598083 -45.387337
-0.61128348 -23.116222 -17.806965
8.8473024 -36.924416 -41.856388
8.8727789 -36.935078 -41.863155
8.8971195 -36.956062 -41.878731
9.1141167 -36.990032 -41.692722
11.302256 -37.479305 -40.659988
11.754264 -37.542587 -40.348286
12.558455 -37.662563 -43.075893
12.576558 -38.070614 -42.349117
12.327189 -38.0816 -42.776745
12.097097 -38.501312 -42.478638
12.561762 -38.058743 -42.670105
12.472443 -38.319794 -42.515003
21.303797 6.0807791 -45.32843
20.486816 6.1990738 -45.617111
19.826941 6.3699431 -46.073025
19.741968 6.3195515 -45.98793
18.726969 6.0839849 -46.102516
16.727167 4.3635573 -45.215153
16.647413 4.216898 -45.137676
16.563461 4.1696191 -45.048946
-1.829208 -22.551126 -18.804508
11.134999 -37.382809 -40.641464
11.26676 -37.338669 -40.763348
11.483844 -37.492748 -40.579006
12.535672 -38.063126 -42.386116
12.57118 -38.094673 -42.404457
12.655044 -38.173241 -42.470924
20.494526 6.1973529 -45.613235
18.841421 6.1294074 -46.089645
17.457279 5.2085185 -45.764149
17.378635 5.1326036 -45.683929
-18.717211 6.0593915 24.452307
11.735486 -37.507481 -40.336266
21.331669 6.0717807 -45.261906
19.224422 6.2804971 -46.185085
16.138149 3.7836211 -44.984581
15.986093 3.6673141 -44.824066
-1.3643614 -19.874237 -21.57074
-1.4239923 -20.074972 -21.454533
-1.5519283 -20.269554 -21.248146
-1.6931787 -20.448805 -21.026527
-0.26330936 -23.222353 -17.623877
20.184914 6.2883215 -45.756287
18.610754 6.0358353 -46.095154
17.329981 5.1687188 -45.712521
9.5463495 19.797459 -21.827639
-1.5042989 -22.753304 -18.433466
-1.0748699 -23.009743 -18.078197
2.1814625 -23.74094 -16.432245
21.109203 6.0725546 -45.178696
19.327215 6.3116031 -46.161167
18.393452 5.9440579 -46.108536
18.322708 5.8950005 -46.035278
18.244946 5.8575296 -45.956173
17.071131 4.8619061 -45.567528
16.917475 4.7199926 -45.399784
12.371506 19.771814 -20.955879
10.211162 20.113037 -21.734852
7.6482491 18.077353 -20.775215
-1.393284 -19.967199 -21.542368
-1.4653219 -20.124208 -21.411484
-1.5820595 -20.2827 -21.237953
-2.099437 -21.945795 -19.483829
-1.8749746 -22.475092 -18.879063
-1.5731878 -22.710526 -18.437071
-0.7575556 -23.112175 -17.879482
0.1061895 -23.30896 -17.454447
21.17573 6.1166763 -45.360687
20.502995 6.2217441 -45.575687
20.437321 6.2605872 -45.516869
19.200033 6.2985468 -46.047554
18.372492 5.9440813 -46.04055
17.21438 5.0215287 -45.586456
11.922106 19.932716 -21.267223
9.5737476 19.787395 -21.796013
-2.1261456 -21.614847 -19.781231
-2.0146544 -22.262789 -19.098072
-1.7576973 -22.589928 -18.668098
-1.0723202 -23.039249 -18.050531
0.060034875 -23.231812 -17.434998
21.568823 6.0270724 -44.909985
21.060633 6.1032872 -45.238373
20.57169 6.2228918 -45.606544
15.98017 3.7715442 -44.585724
12.370488 19.890545 -21.047747
10.455789 20.129377 -21.873718
8.6325331 19.072412 -21.471209
0.27054974 33.670532 2.4133818
-1.5075507 -20.287695 -21.107983
-1.6467247 -20.433523 -20.938984
-1.7368979 -20.570053 -20.805986
-1.9736967 -21.005823 -20.463442
-2.0140405 -21.095381 -20.390697
-0.80882937 -23.069185 -17.857922
-0.41495126 -23.212355 -17.703762
-0.08720161 -23.228767 -17.522816
2.058248 -23.751818 -16.601776
2.3543303 -23.851875 -16.359587
20.529976 6.2634091 -45.498032
20.037914 6.3140106 -45.828136
19.388968 6.3188381 -45.99733
17.930548 5.6207199 -45.953041
16.76693 4.5432296 -45.23798
11.782735 19.940784 -21.270983
10.982321 20.150091 -21.779741
10.874706 20.120258 -21.658371
9.776886 19.871313 -21.903246
-18.757114 6.1888485 24.358969
-19.016798 5.7811055 24.786871
-1.2966713 -19.869841 -21.526754
-1.4658937 -20.244192 -21.29001
-1.5011109 -20.278896 -21.241451
-1.6736149 -20.42794 -21.067678
-2.0350287 -21.297544 -20.116556
-2.0752938 -21.515255 -20.007011
-2.0515323 -21.931231 -19.463882
-2.0620265 -22.016993 -19.431826
-2.0957315 -22.073219 -19.389065
-1.9475831 -22.302305 -19.007345
-1.9434102 -22.333538 -18.990913
-1.4658631 -22.774532 -18.373768
-1.1631525 -22.958324 -18.144701
-1.1572337 -22.997871 -18.138536
-0.8286252 -23.067743 -17.963068
-0.2040495 -23.277559 -17.595654
2.0126443 -23.750902 -16.54427
2.2706783 -23.708435 -16.374828
20.648073 6.2009473 -45.390392
18.973324 6.2126961 -46.090679
18.905184 6.2181787 -46.026287
18.172886 5.8686156 -45.945271
16.558027 4.1000094 -45.123325
16.447275 4.1413565 -45.020058
16.249649 4.0525551 -44.784176
12.236078 19.662371 -21.062632
-1.7185669 -22.594173 -18.657494
-1.1934686 -22.866209 -18.211452
-0.90539086 -23.008169 -18.018305
-0.87973827 -23.038517 -18.032177
-0.86452109 -23.068804 -18.036839
-0.57675749 -23.163107 -17.853613
-0.31574854 -23.152946 -17.690317
-0.043634396 -23.217525 -17.518597
2.3047774 -23.821386 -16.401543
2.4995487 -23.761997 -16.212791
2.5625687 -23.829988 -16.259747
2.5539918 -23.881586 -16.227512
21.458853 6.0122428 -45.006657
20.945187 6.1131339 -45.288921
20.44054 6.2250781 -45.6054
20.397367 6.271697 -45.578411
19.292339 6.2961564 -46.033016
19.246525 6.3483872 -46.007629
18.564957 6.0124893 -45.966415
17.88485 5.6603951 -45.880058
16.387989 4.1005149 -45.068954
24.831396 37.196583 -23.261698
12.100435 19.900742 -21.183519
11.308954 20.057812 -21.561575
9.0769243 19.484621 -21.723318
-9.1219978 -10.102391 5.2107568
-0.55355251 -23.094999 -17.750593
-0.48335198 -23.123297 -17.798397
-0.22963995 -23.164972 -17.62207
-0.18976946 -23.212681 -17.644556
0.056867149 -23.235031 -17.485432
2.2604687 -23.779684 -16.42886
2.4110389 -23.779493 -16.196823
2.4697263 -23.758877 -16.265072
2.5109954 -23.843468 -16.27714
21.216169 6.1363001 -45.134121
20.738993 6.180459 -45.435627
20.684219 6.1853714 -45.381737
20.224077 6.2430124 -45.726883
20.124207 6.3101859 -45.650558
19.655548 6.3516879 -45.980812
19.608763 6.4035745 -45.954781
11.952514 19.88483 -21.099768
9.1806288 19.566328 -21.71274
2.1365297 -23.667309 -16.511772
20.970303 6.1850295 -45.255173
20.507933 6.2406569 -45.601307
20.450764 6.2585125 -45.546539
20.419851 6.3260427 -45.543892
19.96703 6.292604 -45.870007
12.090763 19.903803 -21.214888
9.4700022 19.739559 -21.793577
-10.160213 -6.955081 1.5890058
-10.272762 -7.1521955 1.7766207
-6.5885248 -10.656474 6.4219265
9.7443314 19.888039 -21.852329
-10.572246 -9.3214054 3.977232
-9.7561588 -9.9687414 4.8609896
11.036555 20.87462 -21.762383
10.065276 20.014145 -21.784473
9.0088911 19.427889 -21.6665
8.9314575 19.3538 -21.58744
8.8553896 19.303541 -21.509562
1.6164695 33.961205 2.6040447
-18.808395 6.2070718 24.413298
-10.853579 -8.5985785 3.2006149
-9.896801 -9.8640728 4.7113276
-8.9811783 -10.17073 5.2030845
-6.3261495 -10.75279 6.5955653
11.220873 20.073914 -21.462896
10.570381 20.148369 -21.730906
9.652297 19.875256 -21.732517
8.3886757 18.918133 -21.293015
8.3077698 18.822197 -21.204544
8.2387323 18.799551 -21.135197
1.9956362 33.881748 2.7916074
-0.98183221 32.827675 2.6768713
-10.775687 -8.7806368 3.3898687
-10.360397 -9.6383028 4.5421619
-10.264911 -9.6840677 4.437161
-10.263945 -9.7416468 4.452354
-9.8937273 -9.849473 4.7362905
-9.4892473 -10.004977 4.9801064
-8.6670828 -10.192822 5.4096136
-8.6659203 -10.245837 5.4230003
-6.6323504 -10.708957 6.4220371
-6.2378945 -10.776948 6.63907
11.692778 19.972126 -21.245163
11.027228 20.119448 -21.480991
10.469324 20.097738 -21.799208
10.398584 20.099607 -21.732586
9.4958353 19.800081 -21.680033
8.413497 18.950111 -21.336605
1.5479927 33.97607 2.3976705
0.1215241 33.574318 2.3532548
-10.102153 -6.8903699 1.513081
-10.19101 -7.0304122 1.6507728
-10.281494 -7.1757956 1.7818942
-10.797922 -8.7070742 3.3314009
-10.056122 -9.7704716 4.6225586
-10.04387 -9.8235483 4.624301
-9.6802311 -9.9537754 4.8544211
-8.9560881 -10.106848 5.2653689
-8.5778589 -10.217488 5.4591336
12.230597 19.839319 -20.941591
11.594717 19.974291 -21.158335
11.099686 20.073753 -21.520676
10.514448 20.11224 -21.786684
10.444994 20.127085 -21.723999
7.3036265 17.423685 -20.447205
7.1542025 17.181849 -20.242716
20.462023 47.028442 -10.254997
2.9331717 33.709145 3.1666353
2.0706463 33.894871 2.6529524
1.1022201 33.972485 2.2288234
-19.405153 4.0347986 26.498573
-10.1351 -6.9159274 1.5506799
-10.110061 -6.9584255 1.5415809
-10.731423 -8.9491186 3.6462207
-10.707719 -9.0807886 3.6617305
-10.513533 -9.4496479 4.0913033
-9.9679956 -9.8263168 4.6881251
-9.6448488 -9.9793453 4.9128585
-9.6230946 -10.018038 4.9008374
-9.3124266 -10.069499 5.1072893
-8.9856482 -10.127262 5.2878127
11.754053 19.934 -21.140266
11.222715 20.051001 -21.443653
11.17872 20.124863 -21.417454
9.1641665 19.556278 -21.698219
2.482435 33.746334 2.9743865
1.672215 33.98011 2.4749167
0.46828219 33.728767 2.3478925
-1.6221364 32.128422 3.0817146
-1.8792892 31.784567 3.3337386
-19.114109 3.6570494 26.963461
-10.001661 -6.7116494 1.4434743
-10.015136 -6.7516704 1.4644058
-10.020194 -6.788938 1.4777399
-10.027111 -6.8274727 1.4935385
-10.050936 -6.8703761 1.5222284
-10.080617 -6.9087787 1.553863
-10.110153 -6.9553075 1.5871148
-10.18517 -7.0468054 1.6644537
-10.707564 -8.0836287 2.7303956
-10.752186 -8.207118 2.8073027
-10.798815 -8.6835432 3.3726718
-10.769383 -8.7091761 3.3692153
-10.777352 -8.7536192 3.3870256
-10.471387 -9.397666 4.1637058
-10.411362 -9.4165974 4.1186671
-10.227489 -9.6639929 4.4676485
-9.9186802 -9.8704538 4.6860619
-9.6447544 -9.9521589 4.9097662
-9.3148928 -10.105298 5.0832305
-8.9852724 -10.161917 5.2220917
-8.6825151 -10.221583 5.3953466
-8.669939 -10.258545 5.3941631
-6.5631418 -10.654167 6.4259825
-6.2891555 -10.676575 6.5792322
11.485918 19.980968 -21.372465
11.373697 20.019035 -21.277456
10.892421 20.090366 -21.594584
10.267447 20.073828 -21.761326
9.5006781 19.804094 -21.707642
7.6934223 18.074974 -20.765606
7.6041641 17.98468 -20.629725
23.096596 46.280754 -15.67028
18.253143 48.314716 -5.5653877
2.9999456 34.254372 3.3272636
2.9003723 33.62468 3.2665014
-0.038172092 33.530727 2.4454203
-18.884048 6.082756 24.507549
-18.98517 5.8167324 24.686892
-18.784691 3.2858744 27.417048
-14.827866 2.2410061 29.530645
-10.189998 -9.6451292 4.4734325
-9.8935337 -9.8977871 4.6833525
-9.6355867 -9.9196615 4.8766603
-9.6327543 -9.9540577 4.882133
-9.2803211 -9.9694738 4.9808769
-9.2512388 -9.9871788 4.9613829
-9.0286665 -10.069905 5.186964
-8.9988604 -10.128241 5.1755552
-8.7596054 -10.16547 5.3594308
-8.7450676 -10.197141 5.3550625
-8.461854 -10.199228 5.4874759
-8.4433632 -10.227441 5.4787941
-6.5685902 -10.638736 6.5426288
-6.2153993 -10.757077 6.6247659
-6.2020411 -10.78863 6.6225681
12.2222 19.807039 -20.896544
11.73601 19.941561 -21.225595
10.531618 20.182327 -21.660826
9.9103537 19.987337 -21.743246
9.1818504 19.521103 -21.581793
9.1289425 19.540129 -21.536575
7.4945354 17.751684 -20.522503
7.4109516 17.65637 -20.388527
20.554604 47.011215 -10.358573
22.323696 57.916229 -9.4473162
2.6589246 33.699142 3.115895
1.9439003 33.89539 2.650285
-0.20773718 33.405869 2.3878069
-18.890747 5.973937 24.497528
-19.047152 5.7522135 24.75482
-8.5531216 -10.188222 5.3913984
-6.4793973 -10.621001 6.5385571
-6.4611249 -10.646094 6.5284953
-6.1758642 -10.68021 6.6245265
11.988204 19.934471 -21.082216
11.930512 19.950079 -21.030338
10.791853 20.143044 -21.516153
9.6266069 19.868725 -21.750273
24.643972 56.823822 -14.258783
22.513281 50.808208 -11.660008
22.077597 50.124161 -11.403674
20.499851 47.018631 -10.588675
17.819305 47.613827 -4.8651652
16.577765 50.546463 -1.1270664
3.3499799 33.599983 3.3594005
2.5207384 33.723648 3.0715811
1.7737753 33.876266 2.6974156
-0.26691797 33.376732 2.4485617
-18.643988 6.3262787 24.284588
-18.713612 6.0895 24.418804
-18.848705 5.8844724 24.640991
-19.01016 5.6822577 24.90797
-19.127293 5.4678583 25.108059
-19.377338 4.9505281 25.55549
-6.5415392 -10.645142 6.4212031
-6.2590194 -10.712459 6.5397511
12.157018 19.790895 -20.812984
11.120679 20.18087 -21.484259
0.044125658 33.552414 2.3071165
-1.9654818 31.708166 3.2713799
-2.1936109 31.366146 3.5039165
-2.4261649 31.266661 3.7497034
12.508615 19.814058 -20.844082
12.443974 19.83341 -20.780386
12.417387 19.902779 -20.781229
24.642189 43.417301 -19.68799
14.35413 51.535458 3.6046081
2.0651517 33.905701 2.6579342
1.246537 33.980335 2.4623377
-18.623106 6.2787852 24.300179
-18.7111 6.0923529 24.450197
-18.827753 5.9116349 24.636557
-19.017328 5.7506313 24.920012
-18.990616 3.4604495 27.135086
-17.174616 2.8494701 28.320452
2.855032 33.686363 3.2061689
2.2536459 33.825481 2.8396552
1.5697539 33.954563 2.5434604
0.7817657 33.89069 2.3627315
-0.1902943 33.434105 2.37608
-1.9251708 31.80217 3.2661767
-2.1527238 31.42594 3.5185022
-2.3659198 31.266695 3.7428722
-2.4390705 31.238531 3.8182187
-18.735582 5.9824104 24.574825
-19.404245 4.848001 25.66254
-19.448298 4.6692405 25.759832
-19.052343 3.5782242 27.069166
-18.304955 3.0459745 27.793331
-14.865246 2.3558834 29.523676
24.193979 48.128357 -16.091101
22.373617 61.315598 -5.8993621
22.29097 61.428856 -5.8115907
16.017082 49.05965 -0.80278355
18.331078 60.588314 -0.65210629
17.40177 57.389408 1.2786703
3.183574 33.611794 3.309655
1.9926295 33.902847 2.6500781
1.9114214 33.887623 2.7284825
1.272953 33.999645 2.4345539
0.41919038 33.79443 2.3681827
0.34760708 33.74807 2.4408817
-0.67339796 33.094872 2.5947423
-18.723282 6.182467 24.297091
-18.815113 6.0284371 24.43574
-18.916788 5.8697295 24.585802
-19.417841 4.3294621 26.19129
-18.96508 3.4481454 27.225452
-18.246822 3.102797 27.800001
-17.847393 3.00822 27.99943
1.1563425 33.902264 2.3611765
1.0999392 33.960419 2.4086063
1.0242261 33.96101 2.4800236
0.21173036 33.703503 2.4251733
-0.86300373 32.980949 2.7361584
-2.3569546 31.226906 3.6855028
-2.4293613 31.266375 3.7575214
-18.990721 6.2565465 24.780315
-18.828672 6.1165247 24.666807
-18.812031 5.9269481 24.705166
-18.984818 5.7787242 24.911825
-19.319445 5.0564761 25.457941
-19.377171 4.9089246 25.555639
-19.37866 4.1602106 26.310698
-19.197332 3.7647724 26.798252
-18.639261 3.2016625 27.493528
-18.336737 3.1196694 27.748915
-18.323914 3.0379674 27.769035
-17.965294 3.0194657 27.940987
-15.198968 2.4474018 29.402945
21.1738 42.704529 -13.677598
21.685282 43.926983 -14.255217
-1.8568239 31.830359 3.3312335
-2.0350037 31.944582 3.4812315
-18.591206 6.3326831 24.175634
-18.576452 6.2911892 24.176315
-18.609484 6.1722803 24.237162
-18.625992 6.1316686 24.261599
-18.658689 6.0844316 24.301054
-18.699564 6.0359235 24.347593
-19.402357 4.8252983 25.706047
-18.998188 3.4411979 27.139038
-18.744097 3.3311303 27.414093
-18.740412 3.2492247 27.434153
-18.461824 3.1825192 27.659876
-17.496597 2.9301527 28.200008
-17.14687 2.8167541 28.343565
-17.156353 2.7777686 28.37742
-15.265182 2.3583252 29.345015
2.3742099 33.80162 3.0224607
1.2770245 33.979599 2.4481182
-2.2440431 31.288006 3.5876229
-2.3058288 31.253843 3.6583986
-2.369612 31.227098 3.7288918
-19.381769 4.2189746 26.290531
-19.388132 4.140408 26.313196
-19.078999 3.6031137 27.010086
-18.579447 3.2642291 27.508427
-18.331379 3.1011648 27.756964
-18.007719 3.0482414 27.895454
-17.989294 3.018507 27.887375
-17.726076 2.9769285 28.073872
-17.441916 2.9188762 28.247839
-17.410751 2.8969519 28.224636
-17.392742 2.8657744 28.216982
-15.089884 2.3611102 29.407696
1.4685522 33.97747 2.5906844
1.1138655 34.622776 1.962015
-1.6802931 32.148232 3.2830606
-1.8360982 31.979883 3.5041082
-2.3486061 31.241693 3.6116221
-17.944178 3.0347688 27.980272
-17.271048 2.964262 28.174833
-17.250181 2.9533639 28.170782
-17.021338 2.8384953 28.365366
-17.015654 2.8041692 28.368374
-15.15462 2.3927443 29.36264
-15.150661 2.3569751 29.370945
-14.919528 2.3784318 29.507395
