# .PCD v0.7 - Point Cloud Data file format
VERSION 0.7
FIELDS x y z
SIZE 4 4 4
TYPE F F F
COUNT 1 1 1
WIDTH 1509
HEIGHT 1
VIEWPOINT 0 0 0 1 0 0 0
POINTS 1509
DATA ascii
18.622862 3.4422345 -34.474899
17.171211 3.4439874 -35.76799
16.852497 3.9561243 -35.111149
-0.33145365 -23.199125 -17.68668
1.796674 -23.709238 -16.661848
9.1235266 -29.82683 -27.705133
9.2516909 -30.00469 -27.980915
9.3783436 -30.181528 -28.251431
-3.1673076 -30.351849 1.9405001
9.1979637 -30.684158 -28.965626
-3.7765536 -31.463747 -4.027318
-3.8534679 -31.58383 -3.8380063
-3.8611259 -31.686705 -3.7959065
9.7550669 -31.081961 -30.142349
-0.68581152 -31.648764 -3.713325
-0.74938124 -31.762585 -3.5310385
-0.80306983 -31.88273 -3.3700178
-0.82865828 -31.982992 -3.2822871
-3.556494 -32.454178 -4.2213664
-0.90164226 -32.210072 -3.0444157
-4.2672806 -32.823391 -4.8524442
-3.3539772 -32.884766 -4.5207376
-1.0475967 -32.761108 -2.5358155
-3.4260628 -33.220161 -4.2737541
-1.0911129 -33.416416 -2.22593
-1.6594784 -33.6264 -7.8073468
10.31674 -31.955679 -31.16186
0.24496318 -33.533287 -5.3889852
-1.7215182 -33.939709 -7.579792
0.59479022 -33.691738 -6.1738949
-1.7265792 -34.158329 -7.4986796
-2.261318 -34.452366 -6.2952518
10.631452 -32.21999 -31.784035
0.52157223 -34.194946 -5.8174324
0.42887256 -34.310307 -5.554544
10.821046 -32.368973 -32.161896
10.848711 -32.410423 -32.210003
10.572914 -32.559612 -32.530048
10.692022 -32.622719 -32.764175
11.00353 -32.602837 -32.489552
10.832702 -32.713974 -33.029179
10.894414 -32.789211 -33.133152
-3.0614552 -36.743549 -5.9204369
-2.9659705 -36.931976 -6.0358377
1.8115822 -35.883419 -10.376278
1.8990825 -36.127331 -10.463902
-6.8642797 -38.964539 0.12129773
11.200263 -33.349277 -33.555561
-6.8501191 -39.080009 0.14061289
11.235625 -33.3825 -33.617428
-6.2988658 -39.504482 -0.71837878
-6.2946272 -39.619907 -0.67251432
11.452199 -33.553642 -33.998486
1.6538972 -37.622917 -9.2242556
11.696909 -33.67168 -34.465652
11.482863 -33.755127 -34.81908
-5.3145051 -40.124844 -4.3213396
11.560895 -33.804337 -34.955055
-5.332952 -40.237133 -4.241024
11.808446 -33.79224 -34.645786
-1.5346719 -38.963181 -9.8281374
4.6881976 -37.428204 -14.232554
11.593514 -34.074249 -34.886833
-7.3108101 -41.885902 0.00064243434
2.8205957 -38.21122 -13.400971
-4.9973836 -41.151096 -4.4355063
2.1400719 -38.425274 -16.879234
5.1885295 -37.684757 -15.255775
-4.755043 -41.494053 -4.7124128
2.6860342 -38.715214 -12.858485
2.4788864 -38.441082 -17.498749
-2.4462593 -41.300903 -8.8787298
2.5737469 -39.499779 -12.197148
8.369236 -36.766964 -23.137123
12.103975 -34.476379 -35.704216
2.6043711 -39.669559 -12.168446
2.6078875 -39.768932 -12.120505
-8.2166767 -44.465378 0.61439592
2.5047591 -39.916096 -11.823513
2.2783785 -39.584984 -18.009205
12.125483 -34.627472 -36.392605
1.6571395 -39.866219 -18.193829
12.15939 -34.647282 -36.447098
-8.7651453 -45.400482 1.9844517
12.188061 -34.675304 -36.487728
-8.7547369 -45.544346 2.0337925
12.201704 -34.707603 -36.495808
1.8464048 -40.032898 -18.434738
0.88029677 -40.492756 -17.965191
4.6807418 -39.382912 -16.651745
0.93077964 -40.546223 -18.022394
4.7807183 -39.415104 -16.840721
0.95809311 -40.627869 -18.028791
5.761971 -39.244102 -17.37746
1.7848737 -40.580986 -18.068438
5.7971749 -39.290455 -17.417742
1.7185014 -40.693329 -17.894222
5.8419886 -39.346558 -17.479788
1.7169471 -40.785156 -17.846975
5.9166417 -39.377293 -17.621183
4.2945318 -40.106472 -17.053558
4.2706022 -40.297935 -16.894991
1.9078537 -41.122581 -17.999485
4.2349243 -40.493969 -16.71052
4.192409 -40.60569 -16.561014
7.3838487 -36.283928 -42.95974
12.323103 -35.176826 -37.136017
-7.2470117 -46.726944 -1.9068154
6.5787916 -39.585835 -18.913258
2.0589879 -41.380112 -18.122952
6.6427569 -39.624031 -19.025314
12.614372 -35.154991 -37.021904
2.0315049 -41.488213 -18.021942
6.7076225 -39.64875 -19.13987
12.655593 -35.157001 -37.089767
3.4965684 -40.652229 -20.877224
6.7962785 -39.663666 -19.319908
12.705956 -35.161541 -37.181671
3.5174918 -40.718384 -20.878231
4.578124 -40.859322 -17.15666
-8.5640888 -47.929279 -1.1769608
6.9800801 -39.689461 -19.695211
12.759745 -35.203144 -37.257744
4.382905 -41.179905 -16.580631
-5.9168334 -46.559982 -5.907896
7.1689377 -39.713703 -20.080799
12.809258 -35.249962 -37.323502
3.6327882 -40.977886 -20.935385
12.834768 -35.269623 -37.358974
12.840546 -35.304264 -37.350391
7.7671309 -36.6199 -42.39677
12.475834 -35.502319 -37.220814
1.0679778 -42.730392 -17.171068
3.8251164 -42.022991 -14.974891
0.080761164 -43.27021 -16.711367
0.952757 -43.001579 -16.851187
12.825542 -35.477001 -37.219334
8.1536264 -36.702034 -42.289803
1.0368726 -43.30975 -16.819004
3.0876253 -41.808582 -22.025
5.5288324 -41.234123 -20.183771
3.898133 -41.602295 -22.234568
3.8556652 -41.701397 -22.115494
3.5055439 -41.850605 -22.641764
5.6522641 -41.380863 -20.320261
8.4582682 -36.870926 -42.112965
4.2306962 -41.691402 -22.71369
5.7402864 -41.4893 -20.415028
12.841226 -35.72298 -38.335884
-2.994415 -46.877609 -10.214959
5.85004 -41.556534 -20.564774
8.6966915 -36.949608 -41.899673
7.2818289 -40.960129 -20.91589
13.056325 -35.72805 -38.102226
4.2962146 -41.95866 -22.666407
12.91781 -35.768063 -38.430901
-2.958143 -47.187634 -10.102517
5.9921598 -41.6945 -20.737776
8.9847031 -36.963516 -41.760403
7.523622 -40.992458 -21.373735
13.122891 -35.790058 -38.180836
3.6246769 -42.504406 -22.482031
5.7587252 -42.051289 -20.083157
9.0155067 -37.022488 -41.772942
7.6720095 -41.028923 -21.642908
13.171667 -35.831005 -38.241215
-6.6956415 -50.169544 -4.7241287
7.7616148 -41.027596 -21.821165
9.2996559 -37.036095 -41.63448
5.8997445 -42.275917 -20.194641
9.307456 -37.069771 -41.632671
2.1224246 -43.649353 -21.969055
7.9956875 -41.05518 -22.264315
5.2215333 -42.67244 -20.080114
9.3341503 -37.091553 -41.651459
2.2223299 -43.66032 -22.104656
8.0554686 -41.087467 -22.358902
5.2645373 -42.731968 -20.118055
1.8221966 -44.060276 -21.349201
8.1175737 -41.09499 -22.466381
5.1965814 -42.863434 -19.907743
9.5826969 -37.075005 -41.486912
2.7795801 -43.620167 -21.791634
5.2203741 -42.928692 -19.907942
9.5765181 -37.117336 -41.468338
1.786896 -44.253666 -21.197208
8.2618809 -41.11982 -22.732128
5.2015915 -43.036491 -19.807091
9.5874605 -37.151981 -41.469345
13.092249 -36.12965 -38.500874
3.4278038 -43.608562 -21.598892
13.091618 -36.168907 -38.475891
2.1859255 -44.318211 -21.724995
7.3696589 -42.072414 -21.685163
9.9030132 -37.214748 -41.360748
13.25533 -36.185631 -38.739727
7.5413032 -42.087715 -21.995899
10.131557 -37.221405 -41.184902
7.6251869 -42.093132 -22.148481
13.357546 -36.175392 -38.915592
10.157365 -37.286263 -41.190746
4.4381442 -43.025475 -25.509491
5.3103919 -43.847591 -19.465799
4.4265175 -43.102692 -25.445383
10.397778 -37.263851 -41.031059
13.204625 -36.296024 -39.133938
2.8317871 -44.752766 -21.277542
2.9065483 -44.785179 -21.368635
10.428209 -37.327347 -41.041878
-1.8095226 -48.615601 -14.015146
10.432788 -37.362694 -41.034393
5.3535538 -44.271511 -19.261078
-13.128179 -58.029015 4.36058
-12.222792 -57.607635 2.9411943
-9.1372547 -55.15276 -2.3858981
-9.0207558 -55.202705 -2.5183971
5.242075 -43.445827 -25.42569
8.6405067 -42.125977 -23.994587
4.8925734 -44.972206 -19.372297
-8.9631081 -55.452724 -2.4742618
5.3240576 -43.530266 -25.487799
8.7747326 -42.139313 -24.222361
4.9088321 -45.144119 -19.278318
8.8658037 -42.125343 -24.398935
6.8345323 -43.322182 -23.608492
-2.4816823 -50.292278 -13.653555
13.428596 -36.550594 -39.839733
5.1769328 -43.76062 -26.143227
7.0041461 -43.41048 -23.828596
13.446445 -36.612186 -39.830372
-2.5810287 -50.876324 -13.233836
8.0870056 -43.143822 -23.474634
13.656218 -36.608974 -39.648281
13.426254 -36.75095 -39.716393
13.44222 -36.774555 -39.727116
13.456553 -36.799061 -39.733627
11.772368 -37.538361 -40.353416
13.423194 -36.865406 -39.633373
7.5811305 -43.477261 -24.710487
11.814685 -37.57489 -40.37862
11.815526 -37.620594 -40.360279
13.697204 -36.845379 -39.553532
7.6261368 -43.694695 -24.639055
4.6588287 -45.014462 -25.76169
7.5544205 -43.862473 -24.409863
13.482536 -36.87635 -40.205578
4.6092906 -45.153599 -25.626257
3.405344 -47.727867 -17.943802
8.9982805 -43.051411 -25.115139
6.8653216 -44.466534 -24.051775
4.2086353 -45.448353 -25.930145
9.0779152 -43.039299 -25.261393
6.8728585 -44.545715 -24.012337
12.323557 -37.636089 -40.090405
-11.85462 -60.815369 0.16065978
13.757532 -36.92244 -40.100697
-11.980179 -61.120327 0.4569228
13.803225 -36.915524 -40.174023
-12.069424 -61.392189 0.69312435
13.835934 -36.908173 -40.216805
-12.21404 -61.70752 1.0291121
13.867143 -36.913044 -40.259659
-12.079662 -61.75275 0.88307625
13.883409 -36.940346 -40.26783
9.6284389 -42.956123 -26.257603
6.7885375 -45.281986 -23.392834
4.1015201 -46.276054 -25.381319
13.93191 -36.967995 -40.323006
12.64537 -37.825611 -39.937641
6.7244277 -45.640568 -23.059093
12.880554 -37.764439 -39.809643
-1.8772148 -52.331635 -16.121843
8.748723 -44.034374 -25.096771
6.3810334 -45.780674 -23.583664
12.909757 -37.778515 -39.841404
6.9757352 -45.549225 -23.504696
12.927124 -37.808575 -39.848881
-1.7154932 -52.436066 -16.27273
9.0401659 -43.853626 -25.706158
6.4493484 -45.899406 -23.609264
12.938391 -37.839394 -39.847736
-1.6865779 -52.529819 -16.26445
9.1234713 -43.833534 -25.856007
6.4414253 -46.003563 -23.532499
1.4988456 -49.126022 -22.862131
9.2180939 -43.870991 -25.97291
6.5362349 -46.06707 -23.621429
-3.8487036 -55.160961 -12.352743
6.700758 -46.356586 -22.536621
13.8225 -37.15625 -40.967747
13.848071 -37.166737 -40.997074
13.857488 -37.195339 -40.993099
3.2399909 -48.351994 -23.25256
13.881654 -37.20929 -41.017963
6.7302275 -44.638237 -29.515368
14.023844 -37.236481 -40.748302
5.1985455 -45.833752 -28.751144
9.666399 -43.819527 -26.737516
2.2508757 -49.405918 -22.571136
14.102057 -37.270081 -40.839291
14.126745 -37.28093 -40.867931
5.2620554 -46.118435 -28.698381
9.9910393 -43.732536 -27.326052
8.962141 -44.830803 -25.942408
14.157238 -37.328251 -40.881809
11.997156 -38.1283 -42.721657
5.6316099 -45.973152 -29.192556
12.481874 -37.791157 -42.973042
9.1185627 -44.792217 -26.20237
14.107744 -37.461891 -40.717991
6.0395417 -48.14547 -21.542887
6.2148018 -45.782459 -29.142914
12.431352 -37.9272 -42.873539
7.1761041 -45.05439 -29.856009
7.5494466 -44.693233 -30.507284
7.3496571 -45.015339 -30.093813
12.660489 -37.925339 -42.756844
12.314602 -38.212311 -42.653965
-2.2855198 -55.706783 -15.35066
12.653811 -38.147167 -42.29657
11.881579 -38.583809 -42.456371
14.046601 -37.521648 -41.48167
6.3576674 -46.155914 -29.136225
12.259303 -38.357357 -42.546391
5.7122211 -46.698101 -28.955229
12.224858 -38.429924 -42.485462
14.090021 -37.54694 -41.524586
6.3267488 -46.362934 -28.998426
13.053071 -38.09787 -41.995396
8.4146376 -45.533474 -27.673489
-9.3728962 -63.541119 -6.7406321
12.577743 -38.250629 -42.538239
8.4389591 -45.57542 -27.671394
6.4098806 -46.435928 -29.053982
1.2350174 -51.967739 -22.336946
14.313651 -37.542362 -41.391445
6.5931191 -46.313835 -29.335669
-3.7011046 -57.877357 -14.078818
12.523324 -38.39909 -42.426189
8.4710417 -45.726608 -27.620945
2.2846396 -51.245796 -22.798588
12.488598 -38.47942 -42.359459
8.4909725 -45.790348 -27.607136
2.317826 -51.319687 -22.803078
14.379232 -37.587036 -41.4533
13.636558 -38.055206 -41.49601
13.640303 -38.08815 -41.483555
4.2372174 -48.628414 -28.142365
8.7068672 -45.781029 -27.913496
13.214597 -38.094296 -42.54969
9.5649567 -45.450718 -27.42577
13.204102 -38.148121 -42.515522
9.616271 -45.46851 -27.488371
14.022383 -38.066414 -41.127567
4.1818266 -49.352619 -26.864428
14.043139 -38.08926 -41.142044
13.515331 -38.00383 -42.556499
14.183313 -37.772144 -41.921268
5.1811838 -48.582966 -27.444828
8.7495708 -46.207382 -27.698946
13.005321 -38.550903 -42.114235
9.9219103 -45.385761 -27.98292
8.395834 -46.38818 -28.040613
12.956516 -38.660267 -42.014244
10.023693 -45.33593 -28.167221
14.243916 -37.811291 -41.96492
5.2309356 -48.82613 -27.37793
14.259702 -37.832489 -41.973106
5.4221272 -48.682064 -27.669041
13.720122 -38.103748 -42.356339
13.731433 -38.131504 -42.356441
4.2071104 -49.901493 -27.563412
8.2900362 -47.149792 -27.43026
4.242898 -49.974133 -27.572758
10.501405 -45.171627 -28.978136
8.3873377 -47.118999 -27.578789
4.2029924 -50.129852 -27.462563
10.57382 -45.148907 -29.099297
8.0976353 -47.650627 -26.865053
4.3408837 -50.05917 -27.645174
13.512872 -38.64674 -41.857296
-10.852439 -68.989464 -4.5803161
-10.713825 -68.991829 -4.7288194
9.7826748 -46.260853 -28.132401
7.635283 -48.206158 -26.894478
13.852742 -38.451626 -41.952599
9.8676138 -46.221352 -28.267075
7.6775899 -48.247025 -26.913385
4.7088308 -50.399803 -26.974823
8.4281845 -47.66761 -27.280201
14.35139 -38.008354 -42.378227
4.5860457 -50.270084 -27.816015
10.035046 -46.148609 -28.551062
7.8251615 -48.238155 -27.108818
3.0600417 -51.981213 -26.384758
7.7426696 -48.955303 -25.570065
14.397109 -38.035698 -42.419353
2.5524263 -52.338909 -26.663258
14.466899 -38.162724 -42.038094
2.7709959 -52.59742 -25.825926
10.320256 -45.99477 -29.054552
8.0443201 -48.243023 -27.386347
-3.3311479 -60.179359 -17.517019
14.556276 -38.120022 -42.174072
4.4210734 -51.069542 -27.2927
10.491594 -45.918415 -29.34564
7.5486474 -49.240135 -26.157328
-3.3387773 -60.542068 -17.371971
14.632983 -38.10611 -42.277214
3.6463003 -51.909294 -27.045338
4.7997046 -50.893082 -27.785227
10.709211 -45.850658 -29.693483
3.8297184 -51.905304 -27.243868
10.773735 -45.838657 -29.790918
-3.0521083 -60.793938 -17.566517
14.707295 -38.161678 -42.326473
3.9121673 -52.030239 -27.271015
2.0097072 -54.292553 -25.342785
7.1496625 -50.189503 -26.086206
2.5793805 -54.109753 -24.99894
6.5229058 -50.784302 -25.992937
11.136732 -45.704548 -30.371481
7.694942 -50.070812 -25.831299
14.528749 -38.246349 -42.836052
2.3031383 -54.278114 -25.655491
10.24418 -46.89817 -29.234896
6.6562257 -50.82164 -26.132757
7.8360124 -50.085529 -26.001625
14.568252 -38.279594 -42.86557
-3.4318564 -62.505383 -16.51722
7.743957 -50.359814 -25.718716
14.585431 -38.298447 -42.875957
-3.3458705 -62.556095 -16.588026
7.8951674 -50.227989 -25.989634
14.598484 -38.323933 -42.878086
-3.251514 -62.616188 -16.664137
8.3512735 -49.593769 -26.95146
-3.1665924 -62.667786 -16.733212
8.410593 -49.610542 -27.015703
-3.8197043 -63.788952 -15.622039
-4.231884 -64.5177 -14.901384
10.870415 -46.515118 -30.312321
7.835546 -50.27483 -26.870676
4.8876753 -52.074677 -28.286068
14.831392 -38.378201 -42.736629
14.852696 -38.390419 -42.75528
6.0469642 -52.536388 -25.493504
4.6693764 -52.306282 -28.871058
11.170328 -46.403954 -30.783119
7.9576201 -50.584866 -26.840168
4.801271 -52.230263 -29.037611
11.249809 -46.359337 -30.918545
8.0471029 -50.553646 -26.967752
14.629766 -38.501282 -43.182121
7.299088 -51.423012 -26.562889
5.7605677 -53.573368 -24.619909
4.900847 -52.459316 -29.053427
11.470476 -46.272587 -31.267582
7.9249215 -51.168404 -26.459995
14.7 -38.537365 -43.243816
11.546204 -46.223934 -31.399008
8.0150366 -51.129498 -26.593201
14.719001 -38.551308 -43.25909
-0.1659828 -59.717896 -22.166483
10.683669 -47.46273 -30.315233
7.4744644 -51.631321 -26.656206
14.858421 -38.625813 -43.012459
8.3709278 -50.882118 -27.15863
5.1150613 -54.763985 -24.325809
8.4503479 -50.865597 -27.264441
5.1548424 -54.840027 -24.33301
11.123054 -47.187187 -31.041885
6.9964352 -53.173058 -25.221775
3.7850387 -56.962181 -22.887575
11.208511 -47.122936 -31.191988
7.144587 -53.036697 -25.472393
14.647661 -38.854023 -43.386688
-1.9035689 -62.376915 -21.918837
6.345993 -54.287437 -24.911659
14.789697 -38.762737 -43.586029
11.515424 -46.97382 -31.677412
7.7899475 -52.435505 -26.56999
14.886168 -38.86132 -43.283081
14.905222 -38.881008 -43.294159
2.8021708 -59.28738 -21.900494
-1.2186186 -62.387306 -22.573364
14.95876 -38.880913 -43.343418
-0.92367226 -62.780746 -21.513718
10.974051 -48.103855 -31.097979
14.941418 -38.791046 -43.72834
-0.83663332 -62.816483 -21.587582
11.051611 -48.063171 -31.218147
3.9166088 -58.549767 -22.274427
3.9863403 -54.795113 -30.013798
15.085147 -38.804615 -43.523159
3.7644529 -55.811775 -28.523746
5.0778708 -54.378395 -29.404716
15.126854 -38.837231 -43.553837
4.4363828 -55.027737 -29.456247
11.411858 -47.808308 -31.818228
7.6415181 -53.532539 -26.787371
3.9474528 -59.216209 -21.992498
11.579036 -47.698013 -32.091713
7.8907595 -53.348972 -27.170124
4.5655804 -58.429852 -23.043566
11.676471 -47.614471 -32.262901
8.0432415 -53.204922 -27.421242
4.6437764 -58.442551 -23.122475
-2.90623 -66.909142 -19.518984
11.748162 -47.570408 -32.377865
8.1399031 -53.150436 -27.560907
4.6741357 -58.56805 -23.09687
-2.838814 -67.007713 -19.553291
11.822634 -47.534492 -32.49102
8.2599974 -53.065762 -27.74309
5.0242972 -58.070465 -23.704132
-2.8387804 -67.201775 -19.482044
11.892486 -47.4888 -32.592094
8.3482313 -53.026218 -27.853001
7.2799845 -53.957462 -28.127119
-2.7926357 -67.337402 -19.484524
6.8623061 -55.439827 -25.928272
12.042336 -47.402084 -32.828693
8.7018223 -52.611504 -28.477755
15.155592 -39.074787 -43.817802
3.6873336 -56.959766 -29.036842
11.140987 -48.909428 -31.626373
7.3642769 -54.761669 -26.830868
8.8785753 -52.546665 -28.713194
15.225741 -39.048855 -43.906075
3.891932 -56.915112 -29.249805
8.9792233 -52.483006 -28.861326
15.255146 -39.052517 -43.936649
4.9835324 -55.807575 -29.725697
11.440995 -48.652576 -32.134846
7.89464 -54.187363 -27.712212
8.5504942 -49.737232 -35.318382
11.547863 -48.540665 -32.328312
8.1013908 -53.919228 -28.077982
8.678936 -49.628086 -35.482925
7.2260737 -54.789932 -28.642206
15.347008 -39.149914 -43.989346
8.4539528 -49.899666 -35.883808
11.902555 -48.256283 -32.916748
8.5415936 -53.632233 -28.711706
15.089689 -39.216438 -44.369335
4.258996 -57.354263 -29.459179
7.9646378 -54.4431 -28.62851
-0.25005129 -64.668015 -24.009302
12.06811 -48.129902 -33.175922
8.7596464 -53.484756 -29.015734
15.156023 -39.191216 -44.448967
1.4653811 -61.863873 -26.454626
7.8832464 -55.080444 -28.233452
12.303527 -47.954708 -33.557281
9.0359507 -53.348503 -29.390347
15.21397 -39.253368 -44.483295
0.52057737 -64.094818 -24.91054
12.381856 -47.909733 -33.676205
9.1436968 -53.285568 -29.541571
15.233468 -39.272591 -44.495281
8.0968695 -55.138245 -28.43639
9.0960608 -50.126415 -35.715775
12.524433 -47.827175 -33.892441
9.3760796 -53.090096 -29.897413
9.1576166 -50.132401 -35.774551
15.444341 -39.264725 -44.376846
12.128007 -48.793785 -33.618488
15.522343 -39.317631 -44.423889
6.8733096 -53.945999 -33.886051
12.281707 -48.700275 -33.846409
6.9800119 -54.031982 -33.963509
15.366468 -39.567543 -44.497169
15.386214 -39.584724 -44.510799
12.609625 -48.430882 -34.373844
11.873396 -49.754509 -33.566334
11.416263 -49.691891 -34.632343
12.762974 -48.33115 -34.604481
6.7004623 -54.809895 -34.311687
12.004241 -49.71019 -33.735527
11.406144 -49.97776 -34.482239
-8.9694901 -82.482521 -15.881157
11.032839 -50.477814 -34.594486
6.9949059 -55.279495 -33.609161
15.624413 -39.544083 -44.763283
7.1599874 -55.117851 -33.813721
15.645945 -39.555935 -44.780186
12.444408 -49.306705 -34.43185
-8.3166628 -82.460419 -16.472191
-8.2076502 -82.544113 -16.554155
11.164605 -50.900253 -34.538754
-8.1225491 -82.692039 -16.601345
11.394954 -50.482506 -34.971123
9.2511902 -54.144276 -32.802052
-7.9607949 -82.676804 -16.752136
11.118498 -51.321609 -34.296932
15.490793 -39.670033 -45.246365
15.51374 -39.674934 -45.267365
12.195583 -50.149242 -34.467644
10.332629 -52.818291 -33.621166
-7.9527035 -83.584274 -16.571825
11.196382 -51.586433 -34.256393
15.70817 -39.713158 -45.115894
10.387703 -53.953453 -32.311802
15.728466 -39.708569 -45.126583
-11.751237 -91.990929 -11.342624
15.740003 -39.745029 -45.123894
9.1552744 -51.597099 -38.151844
-11.014123 -91.255791 -12.170485
12.633233 -49.894005 -35.059547
10.14499 -54.264278 -32.794754
8.640233 -51.795036 -39.037457
15.81237 -39.773495 -45.186058
9.5531807 -55.308327 -32.631142
9.6644278 -55.217163 -32.779987
9.1190691 -51.776123 -38.779373
8.4952555 -57.422382 -31.66485
9.4412441 -51.786823 -38.373276
8.8474779 -57.632198 -30.985653
13.123453 -49.449036 -35.817371
10.246566 -55.10202 -32.538227
13.188322 -49.4151 -35.904812
10.370151 -54.96888 -32.721897
15.67534 -39.905117 -45.662788
9.2170944 -52.086964 -38.805264
15.790067 -39.995491 -45.412521
13.328519 -49.320477 -36.103584
10.609541 -54.683598 -33.078655
5.7482834 -64.195549 -27.561872
10.215151 -51.35183 -38.491474
12.766703 -50.500954 -35.630638
9.4207354 -57.143158 -31.749252
10.277482 -51.35297 -38.550133
12.82111 -50.503689 -35.686481
9.5794506 -56.920296 -31.998861
15.902958 -39.975368 -45.5214
10.010167 -51.046803 -39.738083
6.5596075 -63.134895 -28.722773
10.818434 -50.527115 -39.275211
6.6949611 -63.051285 -28.884737
8.7318983 -59.030064 -31.289549
9.9076452 -51.657696 -39.518539
8.8595047 -58.914444 -31.459818
15.82236 -40.217072 -45.688843
10.697215 -50.882652 -39.742981
13.447935 -49.980141 -36.600971
10.610258 -55.740547 -33.510044
15.867976 -40.24929 -45.722584
9.9214134 -52.189762 -39.422646
12.849763 -51.16423 -36.142353
15.941465 -40.185757 -45.805206
10.66867 -51.360538 -39.595837
13.652032 -49.810925 -36.885471
10.997781 -55.201347 -34.105659
16.008615 -40.150257 -45.883347
10.517283 -51.36763 -40.129955
16.032225 -40.157818 -45.903873
10.628812 -51.242546 -40.258469
7.5573907 -57.949074 -36.938923
16.097828 -40.21188 -45.949219
7.6190872 -58.338425 -36.926529
13.685441 -50.490055 -37.301064
12.616888 -51.304253 -38.016621
15.923172 -40.30032 -46.411488
7.3465624 -59.53495 -36.467903
13.814416 -50.37962 -37.473133
12.761487 -51.172852 -38.198158
15.955666 -40.331635 -46.423054
7.1728315 -60.118023 -36.197163
7.2376404 -60.177761 -36.245895
16.132307 -40.347939 -46.260006
6.6826234 -61.703049 -35.470768
16.170851 -40.329189 -46.30331
16.185514 -40.358379 -46.307751
16.256243 -40.391232 -46.366074
10.152624 -58.17379 -35.755692
13.978626 -51.010494 -38.065876
11.237985 -57.203766 -35.322067
16.07004 -40.513977 -46.808979
10.275264 -58.235245 -35.844864
13.544575 -51.97427 -37.932896
10.191603 -59.84108 -34.351849
14.196409 -50.811932 -38.359596
11.576009 -56.80442 -35.778336
16.130123 -40.56559 -46.842281
1.5771562 -79.477844 -26.14987
14.262816 -50.763275 -38.447086
11.690897 -56.653076 -35.942463
16.128605 -40.649136 -46.819172
0.16446261 -77.302635 -31.171633
13.727372 -51.951054 -38.123409
10.552154 -59.458 -34.820984
16.336845 -40.578884 -46.705986
5.5455985 -70.933838 -30.280186
9.8053102 -55.10207 -41.028145
2.7171481 -77.784615 -27.550116
9.7801914 -56.164715 -40.081768
16.374065 -40.636753 -46.725357
16.021677 -40.906464 -46.990955
9.6572561 -55.820572 -40.810722
9.6096115 -54.407475 -42.43203
3.3062015 -76.787224 -28.29846
10.356308 -54.979195 -40.778927
9.6831903 -54.380821 -42.499367
3.5552163 -76.461403 -28.595942
10.416286 -55.012329 -40.82983
9.9921455 -54.53886 -42.013439
16.170626 -40.722324 -47.172688
10.941689 -53.777851 -41.487843
9.852809 -54.300224 -42.655933
16.27651 -40.892956 -46.896465
10.14415 -54.489681 -42.154331
10.293036 -61.145359 -35.016315
11.019169 -53.886295 -41.533764
13.749536 -52.76115 -38.548939
10.382808 -61.110374 -35.111996
10.607482 -54.366917 -41.832909
13.813884 -52.734386 -38.621914
11.207583 -53.700974 -41.733131
16.38253 -40.884876 -46.988766
16.416031 -40.875629 -47.022999
16.459036 -40.827721 -47.075626
10.511083 -54.528362 -42.474384
11.601436 -53.281879 -42.154831
10.59882 -53.656361 -43.353176
16.506073 -40.852432 -47.114594
10.387492 -55.194012 -42.305729
14.282607 -52.285522 -39.250492
11.371176 -59.634361 -36.481037
11.919596 -52.720287 -42.527733
10.984193 -53.749378 -42.970016
11.92525 -52.881573 -42.510086
14.450813 -52.09325 -39.48716
11.649589 -59.218048 -36.866051
14.538958 -51.956535 -39.625572
11.773355 -59.036018 -37.037418
16.294767 -41.043152 -47.5424
11.730721 -52.986835 -43.015907
11.516201 -52.929371 -43.513409
16.358627 -40.994968 -47.601902
11.84 -52.993019 -43.10638
16.381208 -41.009983 -47.61977
11.835253 -53.175163 -43.081676
12.378138 -58.138309 -37.862446
16.428797 -41.044861 -47.657909
11.893595 -53.366714 -43.113701
14.356787 -52.994209 -39.779514
13.375025 -53.437828 -40.893856
16.617159 -41.046181 -47.499855
12.335379 -53.109005 -43.549927
14.805696 -52.559738 -40.365208
13.690453 -53.615597 -41.147793
14.875615 -52.469444 -40.457661
13.743092 -53.61462 -41.191479
16.446819 -41.268642 -47.962608
14.354064 -54.039055 -40.171356
7.7075796 -66.20742 -40.04549
15.146073 -52.268257 -40.788528
13.936233 -53.813805 -41.324535
16.567259 -41.242088 -48.079163
16.693016 -41.38763 -47.830391
9.4267998 -61.494457 -41.860123
14.169447 -53.356468 -41.66396
16.619545 -41.264462 -48.125053
9.4889421 -61.570469 -41.913132
9.033103 -69.261192 -36.333652
12.22313 -54.234165 -44.051735
16.797695 -41.317139 -47.942745
9.6143866 -61.664852 -42.024483
16.608131 -41.615406 -48.055813
15.072509 -52.94009 -41.209583
12.405788 -54.255188 -44.219509
16.868679 -41.377254 -47.997799
10.204715 -60.544937 -42.622902
16.700459 -41.57251 -48.140198
10.825146 -58.754665 -43.273483
16.721622 -41.597393 -48.155468
15.322083 -52.818249 -41.477459
12.881294 -59.750942 -39.70977
16.651682 -41.445271 -48.461552
10.983478 -58.724869 -43.421791
10.302217 -67.42289 -37.822899
15.451267 -52.728409 -41.630112
13.045874 -59.667366 -39.884956
16.717005 -41.407024 -48.528061
12.605811 -53.764061 -45.159672
10.661333 -66.708672 -38.279957
16.764904 -41.447407 -48.567402
12.69587 -53.873268 -45.237965
16.895103 -41.604401 -48.317482
15.169596 -53.948925 -41.715939
12.418167 -62.163162 -39.709816
15.315942 -53.830761 -41.890381
12.705638 -61.617764 -40.088623
15.401083 -53.700542 -42.008415
13.046124 -60.432045 -40.642857
15.464056 -53.615864 -42.08247
12.90427 -61.380524 -40.313374
17.057337 -41.62891 -48.45705
12.669786 -61.414593 -41.04166
13.310374 -60.622429 -40.846794
13.39575 -60.934101 -40.866718
16.858932 -41.750202 -48.957832
15.425257 -54.546272 -42.534637
14.213798 -55.943073 -43.405872
16.907452 -41.784019 -49.000534
17.06708 -41.857208 -48.787609
15.5738 -54.440323 -42.704029
14.349111 -55.951458 -43.532516
17.151844 -41.743141 -48.882896
15.744319 -54.14325 -42.942535
14.54244 -55.632954 -43.768719
15.884816 -53.958519 -43.11356
14.726254 -55.29187 -43.989326
14.890654 -55.107525 -44.175617
14.895257 -55.406727 -44.131111
16.929462 -42.177666 -49.336994
15.670059 -55.312794 -43.342812
17.017067 -42.050289 -49.429409
15.212259 -55.065022 -44.489265
17.081043 -42.035046 -49.491467
17.222137 -42.23267 -49.242798
15.993461 -54.884243 -43.747768
17.146711 -42.139175 -49.546719
17.330025 -42.100971 -49.350307
17.350609 -42.135208 -49.366451
16.291702 -54.450466 -44.120152
16.434237 -54.321014 -44.285507
13.142709 -66.118378 -42.909157
14.408337 -61.760098 -43.593548
13.470633 -65.327225 -43.303593
14.645011 -61.26487 -43.885941
17.214268 -42.350246 -49.963409
13.505326 -63.658569 -44.533577
13.794549 -64.908539 -43.656494
17.302259 -42.365108 -50.047318
17.466661 -42.456425 -49.812317
16.536837 -55.462631 -44.896004
14.183568 -64.134872 -44.098827
17.356754 -42.519524 -50.085464
17.562935 -42.430279 -49.907082
16.825104 -55.08165 -45.246143
14.642145 -63.257595 -44.628456
16.450962 -56.659622 -45.396938
14.815885 -60.595238 -46.000504
14.986602 -62.656044 -45.021511
16.622143 -56.320621 -45.616459
15.011503 -60.297108 -46.210217
15.214202 -62.174339 -45.289501
16.914457 -55.968067 -45.945976
15.306729 -60.27227 -46.48954
17.720442 -42.725937 -50.422203
17.141071 -55.684635 -46.210789
15.868678 -57.822227 -47.202637
17.776733 -42.752666 -50.476364
17.802376 -42.779503 -50.499802
17.840128 -42.997173 -50.529476
16.359804 -57.69767 -47.690617
16.469982 -57.878967 -47.777702
16.329798 -57.184307 -48.537022
15.431012 -66.041824 -47.342075
17.245621 -57.879665 -47.674477
15.771353 -65.481995 -47.697941
17.486296 -57.474213 -47.950634
16.751383 -58.368 -48.912697
17.713072 -57.105492 -48.20018
17.026831 -57.627102 -49.203346
17.920105 -57.063061 -48.40852
17.782051 -58.951401 -48.993748
18.018749 -58.514709 -49.249306
18.256796 -58.127953 -49.512501
18.378265 -59.688404 -50.482769
18.759851 -59.208771 -50.876858
18.990307 -59.008965 -51.118134
26.156548 -27.369431 -61.484535
26.094433 -27.340328 -61.415722
26.272524 -27.110891 -61.719574
26.317205 -27.006088 -61.80315
25.976582 -27.112741 -61.020191
25.961895 -27.091934 -61.00869
26.238985 -26.950727 -61.08223
25.92466 -27.005318 -60.993099
26.001081 -26.898802 -61.122932
25.821167 -26.966476 -60.291943
25.869469 -26.896248 -60.369648
25.810411 -26.871712 -60.595081
25.783314 -26.835897 -60.57505
25.73299 -26.809086 -60.525684
26.279995 -26.55677 -60.948032
25.778606 -26.736307 -60.603745
26.299047 -26.493664 -60.990643
25.92775 -26.578762 -60.823063
25.752357 -26.671516 -60.301563
25.624502 -26.683813 -60.152493
25.589508 -26.651428 -60.12347
25.555033 -26.622644 -60.094551
25.547823 -26.602776 -60.093109
25.739916 -26.367004 -60.379414
48.478992 -13.773567 -94.457352
25.557911 -26.471935 -59.868214
48.096905 -13.621015 -94.037407
25.500715 -26.431742 -59.819088
25.763515 -26.301899 -59.880276
25.4562 -26.384701 -59.785618
25.819071 -26.197258 -59.972839
25.801725 -26.181026 -59.959633
25.547358 -26.225353 -59.927643
47.426033 -13.233095 -91.948036
25.67248 -26.080412 -60.112858
46.485073 -13.220448 -90.820045
25.401184 -26.204226 -59.518745
25.351807 -26.208319 -59.466125
25.359735 -26.157015 -59.490391
25.460379 -26.047615 -59.632206
25.534809 -25.915176 -59.742935
46.360832 -12.44318 -89.659531
45.988697 -12.344387 -89.263733
25.247456 -26.040014 -59.154991
25.310381 -25.880604 -59.268978
25.372084 -25.755711 -59.360184
25.403519 -25.70985 -59.406799
25.137094 -25.861713 -58.849556
45.130409 -11.542032 -87.345146
45.796585 -10.840105 -88.341568
25.152662 -25.755142 -58.896244
25.220901 -25.683733 -58.98518
25.275059 -25.58692 -59.057056
25.323158 -25.625851 -58.622898
25.083319 -25.719692 -58.598717
25.06687 -25.708122 -58.585922
25.032673 -25.686789 -58.559212
45.03931 -9.5088396 -91.84597
48.407612 -7.959003 -90.940453
48.340263 -7.8688331 -90.89904
25.008402 -25.633856 -58.551407
66.06649 7.6056504 -122.25245
25.188995 -25.346954 -58.795986
58.895756 2.3991191 -109.66811
24.903286 -25.56358 -58.239704
24.868542 -25.540586 -58.213905
24.862303 -25.499018 -58.219238
57.304581 3.3862553 -112.23876
56.516747 2.9098079 -111.06739
24.855589 -25.406118 -58.00988
56.0079 3.0423124 -110.50733
24.839031 -25.392986 -57.997772
44.212318 -9.1147108 -83.746605
56.835209 4.3804021 -112.08728
24.810698 -25.348095 -57.983807
24.800051 -25.284065 -57.990318
24.90596 -25.139198 -58.112194
24.94455 -25.084597 -58.161289
61.264889 7.3178883 -108.17933
24.941063 -25.037914 -58.169407
25.020262 -24.922459 -58.270256
55.498547 1.8451227 -97.087593
61.562595 8.3795023 -108.85028
24.693115 -25.183348 -57.698257
64.629288 12.69224 -115.66879
24.835817 -24.954615 -57.866749
63.604057 11.213068 -109.89153
59.987755 7.5309739 -103.2205
24.917219 -24.933084 -57.516018
60.065109 7.7934318 -103.37658
24.878546 -24.817612 -57.936504
24.880903 -24.915325 -57.489601
24.858393 -24.862225 -57.482048
24.910852 -24.792412 -57.538948
24.604765 -24.974222 -57.451508
66.097023 15.658448 -113.84802
24.644041 -24.856171 -57.500427
24.676851 -24.801426 -57.540237
24.693411 -24.76041 -57.563015
24.571659 -24.912756 -57.221962
60.173203 10.007432 -102.33268
24.769234 -24.642838 -57.653511
64.569931 16.811506 -114.84248
24.494047 -24.888142 -57.162159
66.742287 18.802328 -115.50948
64.726913 18.220659 -115.49229
24.578537 -24.67762 -57.262295
24.641457 -24.594198 -57.331348
24.476978 -24.791687 -56.953114
24.617607 -24.566763 -57.316433
24.66766 -24.466694 -57.377823
64.849724 19.350348 -111.57523
64.535194 19.53253 -111.32275
24.427179 -24.632904 -56.731003
24.370346 -24.665464 -56.680485
46.553532 -0.62177002 -83.796768
24.348791 -24.61314 -56.671314
47.082115 0.23786412 -84.48951
47.000664 0.92205471 -85.836792
24.306404 -24.584833 -56.641842
47.428234 1.6771991 -83.904457
47.151188 1.526552 -83.624229
47.058628 1.5810996 -83.5541
24.456001 -24.161924 -56.814793
45.07753 -0.36105478 -81.356201
44.998184 -0.3024357 -81.298553
44.111259 -0.72178513 -81.538712
24.50168 -24.251457 -56.229134
24.379698 -24.265022 -56.324051
24.355989 -24.263849 -56.305431
24.30057 -24.16745 -56.473473
24.328514 -24.083609 -56.505684
44.706421 3.0055857 -86.783745
24.140177 -24.348885 -56.12994
44.892117 1.3812064 -81.568741
24.118998 -24.321899 -56.116444
45.627556 1.9051665 -81.15284
43.252083 1.6263685 -84.935867
24.104334 -24.314068 -56.105877
42.983547 1.4531003 -84.61937
24.08959 -24.302732 -56.094986
42.49509 0.98027831 -83.98539
24.09581 -24.23325 -56.096832
24.138157 -24.163324 -56.137203
42.284401 1.77601 -85.275925
24.23093 -24.005165 -56.224907
43.015686 -0.54318976 -77.30307
42.603058 1.5328869 -83.047615
42.98735 -0.44178718 -77.29715
42.513836 2.155549 -84.367233
24.077702 -24.187881 -55.893223
43.299934 2.8100142 -84.079124
24.049126 -24.192474 -55.870609
43.142437 2.7398036 -83.908356
45.476368 3.0926492 -80.054939
42.273483 1.7271775 -82.788284
42.031124 1.5734446 -82.512375
42.789211 3.412595 -85.01461
42.087204 2.1635268 -82.724342
24.06004 -23.963455 -55.886032
51.815907 13.964393 -90.508812
42.960594 4.0800872 -84.108223
24.120741 -23.812618 -55.943317
42.14518 -0.117918 -75.566109
53.431084 16.831211 -92.582253
23.981007 -24.042936 -55.62336
23.967867 -24.035858 -55.613655
41.266632 -0.48013991 -75.800316
23.928207 -23.993534 -55.575336
41.88625 0.80409318 -76.546562
23.914375 -23.982815 -55.56562
23.900291 -23.921406 -55.55714
23.923355 -23.865801 -55.576977
43.592323 3.9123759 -78.552788
23.984257 -23.766911 -55.628021
24.028975 -23.60029 -55.668652
23.853861 -23.890316 -55.328613
23.847778 -23.858313 -55.314602
23.828472 -23.858807 -55.299793
45.511436 6.7061548 -78.169701
42.842773 3.7690709 -76.712219
42.488529 3.4350884 -76.361732
42.459167 3.7105675 -76.376846
24.052252 -23.615709 -55.066055
24.030567 -23.616795 -55.050175
23.892117 -23.559109 -55.351639
23.914505 -23.501963 -55.369682
23.896709 -23.498186 -55.356018
23.767334 -23.730354 -55.049068
41.025105 1.5790093 -72.726227
23.737999 -23.71525 -55.026802
40.818432 1.5946187 -72.55616
23.688171 -23.674435 -54.988426
23.679134 -23.660032 -54.980968
46.687286 12.703818 -81.262924
55.755932 28.124615 -93.152679
55.723854 28.400702 -93.169151
23.752003 -23.448303 -55.032307
23.774628 -23.373806 -55.038506
23.773907 -23.34868 -55.037476
23.770803 -23.324705 -55.034245
23.779301 -23.281527 -55.0396
23.629784 -23.547863 -54.731293
32.808018 -7.5863681 -66.478996
23.822426 -23.131737 -55.068516
23.596203 -23.538099 -54.705853
41.850296 5.8206363 -73.789978
23.584858 -23.528351 -54.696518
32.315639 -7.4701657 -66.798508
23.546701 -23.525393 -54.667439
32.249741 -7.4606977 -66.74205
23.545828 -23.456327 -54.654003
23.544315 -23.428661 -54.650742
44.679295 11.493324 -76.647133
31.861609 -7.5167279 -66.379822
50.175323 19.115999 -78.767235
32.180592 -7.3379059 -65.956978
23.539557 -23.410114 -54.44408
31.989758 -6.9301047 -66.586014
31.266699 -7.2094646 -67.364723
23.527321 -23.372276 -54.432308
48.899223 19.046759 -79.275833
31.700619 -7.1924877 -66.287987
31.12599 -7.2096519 -67.235855
51.14748 21.913574 -79.660194
31.28536 -7.5580487 -65.85215
50.104591 22.07905 -80.445892
23.437624 -23.289528 -54.347431
48.595806 21.694357 -80.790688
30.064072 -7.0811863 -67.762634
48.451729 21.950096 -80.687912
23.522484 -23.040592 -54.389404
40.898296 6.5859704 -69.555084
50.441238 26.064514 -82.708145
40.60017 6.2725677 -69.309937
50.296516 26.11113 -82.587654
40.495338 6.2710767 -69.223473
23.534672 -22.896015 -54.384708
41.551674 8.2607088 -70.093872
41.443951 8.2792196 -69.99614
23.372461 -23.177681 -54.070766
23.364069 -23.161472 -54.061989
23.34421 -23.160868 -54.046959
41.140034 9.405673 -70.982262
23.334661 -23.148449 -54.037987
23.577183 -22.845934 -53.965317
23.510765 -22.916094 -53.925716
28.357817 -6.7009153 -68.515579
23.316582 -23.056623 -54.012184
23.474644 -22.88319 -53.892864
23.329855 -22.925842 -53.99683
49.842106 25.929302 -76.894485
23.432562 -22.871164 -53.850224
49.035313 23.543291 -74.56102
50.344688 27.452105 -77.304359
23.370459 -22.759085 -54.005863
48.70306 23.510504 -74.2873
23.387117 -22.699026 -54.010345
23.275803 -22.998417 -53.74929
27.057018 -7.0395694 -68.639046
23.200966 -22.933296 -53.679867
23.178976 -22.923876 -53.653133
23.176239 -22.899155 -53.646454
38.506523 6.1486473 -65.30204
23.172367 -22.871254 -53.638855
37.887356 6.4289622 -65.895546
38.125225 6.1931663 -64.982185
38.06319 6.2814188 -64.924286
23.257584 -22.560816 -53.652042
37.963272 6.2626677 -64.842186
23.245331 -22.547525 -53.640038
37.971283 6.4740009 -64.834366
23.252285 -22.499979 -53.637016
24.500586 -9.3426485 -67.239937
23.133253 -22.80435 -53.376171
23.246328 -22.391331 -53.605083
24.29335 -9.2450495 -67.065254
23.082041 -22.744453 -53.314716
42.158329 17.449736 -69.018715
23.024134 -22.682648 -53.254997
45.306244 22.901514 -68.147148
63.46748 67.994804 -87.823448
23.028297 -22.517822 -53.215103
23.090714 -22.222897 -53.200592
22.98444 -22.570219 -52.960907
38.44479 12.219827 -64.779152
23.123474 -22.08581 -53.196972
22.941378 -22.544443 -52.918949
22.89949 -22.502913 -52.866798
37.090729 8.4743547 -61.511578
36.954674 8.4033079 -61.404663
36.860271 8.4070454 -61.323292
22.863951 -22.461508 -52.826412
36.842636 8.6025038 -61.279778
22.869858 -22.414019 -52.81839
36.637344 8.5751171 -61.106686
22.874306 -22.333172 -52.801331
23.035759 -22.140648 -52.63895
22.890776 -22.186525 -52.775906
22.94556 -21.859859 -52.727188
22.789574 -22.240311 -52.452751
22.761717 -22.218441 -52.42186
44.301796 28.961206 -62.853443
22.724195 -22.17786 -52.377438
22.713816 -22.146605 -52.352268
22.753296 -21.727392 -52.254375
22.590757 -21.977365 -51.923031
42.460495 30.172457 -59.010193
22.524115 -21.915073 -51.840061
22.513824 -21.897343 -51.824581
22.462994 -21.780703 -51.72966
22.696156 -21.459934 -51.541313
22.623964 -21.536755 -51.505833
22.487755 -21.534321 -51.660965
22.570415 -21.520681 -51.449741
22.359526 -21.649431 -51.299213
22.358587 -21.600317 -51.277554
22.349148 -21.578876 -51.259651
22.293104 -21.529238 -51.185123
22.258038 -21.498566 -51.132893
22.248484 -21.4732 -51.11306
22.220634 -21.4487 -51.075142
48.768078 72.634712 -54.565643
46.988628 72.169411 -56.346264
22.197258 -20.891951 -50.806686
39.460426 36.373936 -50.173847
22.191206 -20.735962 -50.732185
39.020508 36.446457 -49.711201
22.082472 -21.142733 -50.486053
22.0086 -21.107325 -50.388622
21.998863 -21.077188 -50.363628
21.9613 -21.015875 -50.294453
21.931002 -20.98583 -50.248116
21.918818 -20.96073 -50.222942
21.897718 -20.967113 -50.203732
21.886011 -20.917887 -50.163105
21.877188 -20.885443 -50.137787
21.869337 -20.84973 -50.111618
21.859016 -20.812223 -50.081799
21.852022 -20.77224 -50.05434
21.848902 -20.71179 -50.021137
21.824251 -20.388893 -49.833138
21.791567 -20.332985 -49.765133
21.801714 -20.140728 -49.679157
24.786629 -3.3879521 -48.465706
24.559162 -3.6080549 -48.296825
24.322771 -3.8164625 -48.107605
24.248148 -3.8991995 -48.055355
23.547302 -2.8979404 -48.863335
24.029095 -4.111258 -47.88995
23.307207 -1.5249693 -49.218674
23.406984 -2.9832978 -48.735126
23.919676 -1.8504081 -47.983845
23.838882 -4.1463737 -47.693054
23.790619 -4.0931568 -47.620415
23.126266 -3.1481433 -48.475773
23.064777 -3.1787148 -48.417175
23.271633 -3.8573122 -47.906597
23.57037 -3.9299481 -47.312382
22.633511 -2.4802566 -48.715355
23.905016 -3.8737583 -46.702633
22.841534 -3.3182607 -48.205971
22.772722 -3.3774765 -48.146645
22.998177 -3.9953282 -47.641834
23.365955 -3.734802 -47.013763
23.315514 -3.6611805 -46.93063
23.261837 -3.6038539 -46.849297
22.503225 -0.22728744 -48.02422
23.604494 -3.5334351 -46.225922
22.458918 -3.3777161 -47.799507
22.771402 -3.466341 -47.219177
23.097284 -3.447129 -46.606747
22.26116 -0.45081076 -47.812153
23.047081 -3.4089592 -46.535892
22.185793 -0.56017435 -47.755508
23.399185 -3.324193 -45.90646
22.238283 -3.158349 -47.491425
23.341791 -3.2280295 -45.797653
22.165251 -3.1452894 -47.400635
23.288786 -3.1842368 -45.718559
22.109196 -3.0967691 -47.323845
23.235815 -3.1159263 -45.629761
22.05069 -3.0365605 -47.24118
23.179996 -3.0644109 -45.544201
21.991322 -2.9811814 -47.158672
23.122898 -3.0441082 -45.469692
21.935392 -2.9272528 -47.080463
23.121304 -2.6506622 -45.309509
21.879175 -2.869359 -47.000408
22.603518 -2.9545245 -45.857769
22.153255 -2.8006499 -46.29813
22.094835 -2.8031878 -46.231842
22.027422 -2.7808993 -46.147064
21.56971 -2.6807263 -46.595314
22.730871 -2.7076166 -44.873947
22.246035 -2.6583145 -45.329418
21.406923 -2.210758 -46.269787
22.552599 -2.5560203 -44.597054
21.337538 -2.2705529 -46.206852
22.49374 -2.5056548 -44.506859
21.263319 -2.3508933 -46.144611
22.439728 -2.4397688 -44.415688
21.197412 -2.375627 -46.075821
22.376335 -2.3878553 -44.318981
21.122915 -2.4145095 -46.001099
22.322239 -2.3160999 -44.224861
21.063124 -2.3611326 -45.917038
21.415752 -2.2646837 -45.264286
21.361685 -2.1930568 -45.177311
21.708794 -2.2260475 -44.537285
19.814962 6.3218856 -45.981468
22.091351 -2.0654812 -43.844692
20.814445 -2.097182 -45.552387
22.480751 -1.9201672 -43.125862
21.16703 -2.0078664 -44.887691
22.419844 -1.8533517 -43.017174
21.103973 -1.9146317 -44.778194
22.36529 -1.7778858 -42.915764
21.043383 -1.8539819 -44.686653
22.308241 -1.7216589 -42.820042
20.981783 -1.7961789 -44.594353
21.350548 -1.7722265 -43.937443
21.28689 -1.7035296 -43.835167
22.130894 -1.4876721 -42.494831
20.786947 -1.5722094 -44.289299
21.614054 -1.4427111 -43.004898
21.100409 -1.4651153 -43.521843
21.954599 -1.2788602 -42.180408
20.597801 -1.3204991 -43.980762
21.432796 -1.216482 -42.688896
20.909922 -1.2252702 -43.201744
21.771326 -1.0653214 -41.85368
20.39941 -1.0858624 -43.665359
21.233011 -1.0043281 -42.350349
20.70524 -0.99125302 -42.860729
21.578104 -0.85811841 -41.512196
20.190172 -0.87869358 -43.339443
21.043392 -0.79188401 -42.026676
20.507421 -0.80318606 -42.547462
20.435009 -0.71724904 -42.42617
20.369598 -0.65430456 -42.322239
21.266878 -0.45847994 -40.933731
16.833761 4.598083 -45.387337
20.709858 -0.41518009 -41.452393
20.172356 -0.40700325 -41.985466
20.097622 -0.31540427 -41.858456
20.030096 -0.24781837 -41.749199
19.957066 -0.16552234 -41.623055
19.88492 -0.073794134 -41.498638
20.796539 0.092671998 -40.072281
19.743349 0.11812449 -41.249493
20.163719 0.22953933 -40.487713
20.595861 0.34064341 -39.697544
19.523792 0.35872918 -40.88306
19.945072 0.49568564 -40.096325
20.386456 0.58522373 -39.311466
19.299654 0.63419443 -40.495975
19.729921 0.7387687 -39.717392
20.168961 0.87225014 -38.893093
19.070065 0.85997361 -40.114918
19.496479 1.0162144 -39.295296
19.949507 1.1401857 -38.475739
20.410364 1.2905195 -37.625122
18.830942 1.1661613 -39.694416
19.27212 1.300457 -38.883991
19.726603 1.4228123 -38.048756
20.187998 1.5774384 -37.177162
18.58629 1.4405258 -39.276543
19.042664 1.586228 -38.463699
18.956778 1.6948708 -38.305058
18.880041 1.7945478 -38.162388
19.33943 1.8994495 -37.308907
19.815844 2.0691059 -36.417538
18.178474 1.825107 -38.603527
18.629648 2.0965719 -37.697029
19.099836 2.214252 -36.831783
19.596125 2.3419039 -35.96806
19.511641 2.4432373 -35.799511
19.435915 2.5581207 -35.635677
19.359568 2.669657 -35.472515
19.273304 2.7940845 -35.289013
18.616877 2.8364825 -35.885044
18.53573 2.924979 -35.732349
18.448811 3.0420437 -35.558693
18.361223 3.1415589 -35.391567
18.282484 3.277179 -35.220421
18.18383 3.3719966 -35.036972
18.098568 3.4995649 -34.859764
18.008333 3.6062043 -34.684959
17.917086 3.7041471 -34.512379
17.824623 3.8222787 -34.328819
17.73601 3.9594934 -34.141659
17.641665 4.0831895 -33.95216
17.55179 4.2014503 -33.771194
16.844387 4.3523035 -34.334766
16.640068 4.5602279 -33.965691
-0.61128348 -23.116222 -17.806965
2.6767263 -23.90337 -16.177147
8.3108664 -28.599985 -25.499071
8.3786545 -28.711073 -25.638895
8.2513638 -29.224312 -26.491833
8.3533373 -29.33194 -26.701065
8.6556301 -29.474438 -27.355274
8.7811146 -29.629171 -27.603868
8.8592215 -29.727034 -27.757542
8.8974094 -29.881294 -27.804247
-3.1737306 -31.114256 -4.4777575
-3.0966904 -31.215561 -4.6097188
-2.8283179 -31.391195 -5.1172543
-0.58216977 -31.378733 -3.4192755
-3.2211227 -31.858536 -4.1660166
-0.81173831 -31.708616 -2.7669866
-3.4614248 -32.204189 -3.5638802
-0.84838557 -32.016869 -2.5779643
-3.3593352 -32.503162 -3.677721
9.4378166 -30.640707 -28.804052
-3.8905466 -32.830276 -4.5697222
-0.47939876 -32.36721 -3.3468552
-3.2052009 -32.901371 -3.8697524
9.6289654 -30.750786 -29.203671
9.6730957 -30.793987 -29.289354
9.8301668 -30.904652 -29.608093
-0.651061 -33.019703 -2.7086265
9.9973173 -31.092505 -29.906097
-2.2367971 -33.747551 -7.5084472
9.7104626 -31.198681 -30.212421
9.8419809 -31.25666 -30.476019
10.008778 -31.319759 -29.846174
-2.127404 -34.223778 -7.5550079
9.9340849 -31.369617 -30.633026
-0.25368196 -34.695423 -5.2608762
-0.043771517 -35.023926 -5.595819
-2.4651721 -35.599533 -6.3623557
2.1346526 -34.695511 -10.642071
10.323483 -31.989559 -31.209066
-5.3688598 -36.981808 -2.2035141
10.347616 -32.02803 -31.243633
-5.3944464 -37.112785 -2.1030807
10.335188 -32.074619 -31.197027
-5.4800181 -37.251095 -1.8872552
10.316838 -32.122303 -31.136177
-5.3380623 -37.312843 -2.1278872
-5.2120686 -37.379631 -2.3369381
-3.2089961 -36.793789 -6.3251891
10.556526 -32.164818 -31.630325
10.409223 -32.313114 -32.113388
10.457129 -32.327026 -32.198822
10.512877 -32.342911 -32.30455
2.2875359 -35.77372 -10.479538
2.280412 -35.866718 -10.417872
10.859037 -32.379475 -32.170799
10.887825 -32.407646 -32.218529
3.4708321 -35.99292 -11.130677
10.703643 -32.602612 -32.572166
-6.6709056 -39.565067 -0.75589287
1.5088527 -36.698727 -10.20574
-6.7362046 -39.699688 -0.58103538
1.483857 -36.808655 -10.098451
3.908145 -36.126606 -12.074665
10.662881 -32.779079 -32.397869
4.0476255 -36.142288 -12.391234
4.0821848 -36.210949 -12.433371
4.1426845 -36.25729 -12.548886
-4.4043727 -39.388496 -4.8587971
4.3978329 -36.381413 -13.072335
4.4837914 -36.427689 -13.245921
-4.452579 -39.863083 -4.5588756
-8.4578953 -41.66531 1.2482263
1.3584831 -37.872868 -9.2799883
7.2575865 -35.478584 -20.206873
-7.7847576 -42.099895 0.30736095
11.241014 -33.105145 -33.39016
-1.3124323 -39.17984 -10.42055
11.069622 -33.168587 -33.75959
-7.6735735 -42.294777 0.20828147
3.1667681 -37.652115 -13.187301
7.299664 -35.724888 -20.156248
11.349751 -33.168861 -33.574219
-0.98308945 -39.306213 -10.940557
11.188834 -33.226086 -33.958141
-4.8078623 -41.210701 -5.1396337
3.1608925 -37.910625 -13.030548
11.422216 -33.254028 -33.672375
11.279499 -33.293716 -34.095734
-5.1618171 -41.730885 -4.2992921
2.9353337 -38.291576 -12.336573
11.380239 -33.384029 -33.510586
-3.0315921 -40.926998 -8.2624397
2.5392451 -38.781727 -12.948898
-2.5985999 -41.000496 -8.9555264
2.5583727 -38.948189 -12.892944
2.5713582 -39.037189 -12.867934
2.5732272 -39.123077 -12.822641
2.4130199 -39.320103 -12.393279
-2.5506222 -41.512009 -8.7883062
2.2887406 -39.485973 -12.052174
2.4063065 -39.489349 -12.273783
2.4316008 -39.56818 -12.278567
5.4363289 -38.183266 -16.020344
5.5427451 -38.188763 -16.245653
-8.8122482 -45.678524 1.7169188
11.473888 -33.790863 -34.848541
0.67593908 -41.198051 -7.8661122
8.0877161 -36.650707 -22.707756
11.720821 -33.799454 -34.63821
-9.6424446 -46.596863 3.4952152
0.8662619 -41.281494 -8.1887684
8.1793318 -36.72089 -22.857418
11.605241 -33.867943 -35.04393
-8.9924269 -46.479721 2.396024
8.2954187 -36.764675 -23.076443
11.851299 -33.869343 -34.843239
2.7810118 -39.455906 -18.710615
8.3344946 -36.787708 -23.136494
11.882759 -33.874535 -34.890362
2.7804124 -39.524788 -18.665255
8.1478729 -36.992657 -22.601149
11.921709 -33.887764 -34.955418
2.6154726 -39.717419 -18.291922
8.3352232 -36.9259 -23.044807
11.929949 -33.924759 -34.949356
1.9637018 -40.055779 -18.296032
4.4750075 -39.406006 -16.368862
4.6980019 -39.336475 -16.8459
1.2565844 -40.514942 -18.177382
2.0544784 -40.252956 -18.342159
8.3970556 -37.139118 -23.030396
11.90192 -34.099266 -34.793175
0.68265134 -40.871727 -18.340187
-7.2268066 -46.398796 -2.2973588
1.2928642 -41.012192 -17.990219
1.366497 -41.052299 -18.083099
4.498652 -39.996357 -17.470415
2.061604 -40.923347 -18.001648
4.3156614 -40.228203 -16.989143
