# .PCD v0.7 - Point Cloud Data file format
VERSION 0.7
FIELDS x y z normal_x normal_y normal_z curvature
SIZE 4 4 4 4 4 4 4
TYPE F F F F F F F
COUNT 1 1 1 1 1 1 1
WIDTH 617
HEIGHT 1
VIEWPOINT 0 0 0 1 0 0 0
POINTS 617
DATA ascii
8.8847017 -36.93898 -41.847458 -0.28000861 0.5688628 0.78474784 0.0029711581
9.1226435 -37.001751 -41.714069 -0.30628151 0.53675264 0.79168767 0.0037188823
-12.314736 -60.735622 0.78645539 0.23159628 -0.96549422 0.82977366 0.11038769
9.3881874 -37.046211 -41.580513 -0.31681579 0.49047002 0.82496637 0.0027477948
9.3993864 -37.058819 -41.569035 -0.33492303 0.43465197 0.84042662 0.0027477948
9.4220247 -37.082397 -41.549129 -0.36774981 0.33485308 0.8678602 0.0025330838
9.7307796 -37.035896 -41.464302 -0.26411247 1.0165063 0.85492986 0.002470738
9.9524813 -37.154186 -41.285534 -0.42163011 0.31219551 0.905101 0.0032443523
10.233479 -37.273933 -41.136028 -0.47254571 -0.18755938 0.88890409 0.0030959381
10.472195 -37.270786 -41.030777 -0.32323718 0.47347656 0.8219381 0.0035523984
10.697475 -37.318626 -40.859203 -0.3295691 -1.0815029 0.25250047 0.0050353203
10.760147 -37.381737 -40.899658 -0.46462232 -0.40127137 0.85786253 0.0050353203
10.964302 -37.372566 -40.724934 -0.33633614 -0.88720304 0.32962906 0.0061253752
10.98953 -37.388023 -40.744141 -0.29897958 -0.92060465 0.29217824 0.0061253752
11.018283 -37.40398 -40.769669 -0.23194954 -0.98997134 0.18798819 0.0066131009
11.302669 -37.467857 -40.657814 -0.15372269 -0.94964582 -0.33338946 0.010905455
5.3639517 -45.871265 -29.350016 0.93852836 0.17463626 0.29776952 0.00012101038
-10.727796 -68.003914 -4.8177423 0.20876554 0.19427161 0.95847559 0
2.5757673 -52.324627 -26.657742 0.20578721 -1.2171186 0.62680757 0.04169349
3.0968349 -51.87389 -27.220989 0.9844209 -1.1044738 -0.74012715 0.04169349
12.554939 -37.64241 -43.049236 -0.31786019 0.62467849 0.74634933 0.0060224733
12.324407 -38.066513 -42.756935 -0.30803341 0.683092 0.70131671 0.0037468532
12.092845 -38.47813 -42.449108 -0.42141727 0.70782936 0.66309923 0.0037181668
3.25423 -56.864433 -29.593092 0.68957949 0.22833955 0.68727082 1.0101903e-05
3.4360614 -57.005127 -29.72879 0.68957949 0.22833955 0.68727082 1.0101903e-05
-12.268753 -86.329796 -10.217375 0.65544295 0.10638285 0.7477147 0
-12.123733 -86.415817 -10.33226 0.65544295 0.10638285 0.7477147 0
-11.798851 -86.445816 -10.612782 0.65544295 0.10638285 0.7477147 0
8.7811975 -51.825779 -38.77317 -5.4179287 -2.9920683 -4.2185993 0.037754964
29.798416 -6.9817753 -67.920464 -0.26547199 -1.046569 0.18480106 0.0091069648
29.198355 -6.8376656 -68.167801 -0.14361025 -0.98687375 -0.14917621 0.0041944608
28.72035 -6.7706437 -68.457443 -0.39472556 -1.3915354 0.44264382 0.0082340753
28.071178 -6.7428741 -68.559929 0.10681877 -1.0273358 -0.18598309 0.0082344217
27.450472 -6.8418593 -68.708839 0.29547513 -0.97913682 -0.22413486 0.0056825541
42.294811 14.563274 -67.645416 0.48485327 -0.52717739 0.69785476 0.026258605
50.018475 73.099442 -57.925396 -1.0364752 -1.5754422 -0.60456192 0.0051992182
20.492638 6.2220955 -45.620377 -0.15527321 -1.0137379 -0.083409227 0.0033156846
19.827404 6.3662271 -46.074413 0.041751791 -0.92912716 -0.37586904 0.0059961365
19.737896 6.3429976 -45.976753 -0.001988508 -1.0751354 -0.097606301 0.0060997731
18.723036 6.0933213 -46.100277 0.46036249 -0.96263051 0.18848024 0.0049378332
16.71187 4.3724856 -45.221672 0.81545532 -0.42363706 0.40146112 0.0073768809
16.616446 4.2359591 -45.15155 0.78867215 -0.37138072 0.53468043 0.0070059826
16.534803 4.1875529 -45.06308 0.78401011 -0.37317297 0.5293631 0.0092253573
2.0895245 -43.972267 -22.022675 0.95152718 -0.23786557 0.19497694 0.030907759
10.362129 -37.293068 -41.070976 -0.45715696 0.12262487 0.94838625 0.0035751788
10.396282 -37.248398 -41.072258 -0.30065513 0.52699673 0.80164152 0.0033753891
10.917006 -37.367985 -40.789322 -0.33320484 -0.91863525 0.37457135 0.005140482
11.128681 -37.399712 -40.633926 -0.42506173 -0.80571395 0.43140489 0.008496915
2.724046 -52.220371 -26.595385 0.35116792 -0.60134697 1.0833739 0.04169349
11.233699 -37.427105 -40.723896 -0.012531071 -1.3328525 -0.40455961 0.00930556
3.1968689 -51.820377 -27.097761 1.0122409 -0.56817508 -0.15193565 0.04169349
3.1762457 -51.812153 -27.188311 1.0060039 -0.82097834 -0.44246376 0.04169349
-7.9104338 -76.047401 -14.438842 0.53659737 0.47379422 0.69827092 0
31.154581 -7.2608185 -67.274155 0.15608461 -1.2156273 1.289402 0.014920183
31.104927 -7.2229667 -67.23719 0.93287641 -1.493152 2.9471989 0.014920183
29.417458 -6.9849114 -67.939812 0.45287973 -0.84364456 -1.4576627 0.006664908
28.907515 -6.7801952 -68.293892 -0.13486087 -1.0170588 -0.11193822 0.0060743284
46.784855 12.95548 -76.414719 0.84433281 -0.11907019 0.52242172 0.00040961782
47.156097 13.682635 -76.846535 0.84364712 -0.12408543 0.52236229 0.0011435215
28.35038 -6.7198234 -68.587227 -0.015260601 -1.0616128 -0.20811839 0.0072614341
27.779978 -6.7555332 -68.702644 -0.24432588 1.0783226 0.29522002 0.0064166086
42.375889 14.63507 -67.647514 0.48485327 -0.52717739 0.69785476 0.026258605
42.471039 14.860703 -67.594551 -0.57376158 0.15364708 0.80448133 0
20.500401 6.220582 -45.616528 -0.15610136 -1.0135511 -0.083569117 0.0033156846
18.833082 6.1528721 -46.07864 0.48391452 -1.1095133 0.25837559 0.0077390778
17.444742 5.2220588 -45.763424 0.70718271 -0.71461535 0.10311154 0.0018683841
17.360048 5.151186 -45.685032 0.75711137 -0.64198738 0.27546585 0.0020224252
-9.2429533 -63.543804 -7.1098161 -0.54709113 -1.0089078 0.37362003 0.058355663
-6.7795558 -64.980095 -11.909068 0.61010754 -0.29658443 0.73471522 0.055631105
3.0351958 -51.675648 -26.825932 0.98943448 0.67217082 1.3765099 0.04169349
29.082991 -6.8189969 -68.201981 -0.053685971 -0.99906433 -0.32823604 0.0041944608
19.224705 6.2796659 -46.185753 0.38341418 -1.3289422 0.16564828 0.0079511041
16.141861 3.7805095 -44.982693 0.7059778 -0.60287476 0.37187144 0.0068099182
15.98302 3.6699612 -44.825672 0.92981505 -0.20359054 0.601466 0.007780184
12.746003 19.707499 -20.710695 -0.12045756 -1.1023588 -0.11941832 0.010362322
-1.3492734 -19.887995 -21.575544 0.48312926 -0.68157691 -0.89704812 0.0090904227
-1.4319242 -20.06834 -21.452763 0.24658406 -1.0094512 -1.0385143 0.0072462149
-1.5445514 -20.275723 -21.249792 0.089581333 -1.1965122 -1.0411303 0.0072462149
-1.6643094 -20.471058 -21.031918 0.5652135 -0.81076294 -0.46147656 0.0027334325
-0.26404768 -23.212452 -17.618484 0.21531087 -0.7248441 -0.73492271 0.0025192357
0.799411 -23.418037 -17.161165 -0.30184117 -0.95338523 0.081148326 0.0033759561
-12.691571 -60.662498 0.36366072 -0.96105158 -0.90508115 -0.61274022 0.11038769
-9.0829229 -63.488178 -6.751986 0.20110981 -1.0114882 0.086055495 0.058355663
31.009655 -7.1730614 -67.419487 3.3456664 -0.23210174 -5.6555572 0.014920183
20.184906 6.2871132 -45.756519 -0.16764158 -1.0206684 0.01589147 0.0046450831
18.610931 6.0354505 -46.095146 0.45830622 -0.88746405 0.13193832 0.004494275
17.357996 5.1407113 -45.710857 0.72266281 -0.68419617 0.14484096 0.0020224252
9.5522079 19.784031 -21.834078 0.67318821 -1.1155316 0.45360956 0.0063600442
-1.0743871 -23.010481 -18.079414 -0.12823392 0.79297799 0.70308685 0.0057012532
0.32402888 -23.317204 -17.335993 -0.33851522 0.44757238 0.88065702 0.0028777509
0.76995969 -23.402376 -17.092754 -0.26023987 -0.9614234 0.11272826 0.0033759561
-10.891703 -45.876991 3.0651124 0.023587558 -0.82711339 2.2157679 0.041947339
-12.461788 -60.843021 0.59877783 -0.17617428 -0.96548748 0.20774682 0.11038769
-11.97323 -60.936512 0.16343787 -0.14028615 -1.0502754 -0.26649135 0.11038769
-7.0262427 -65.15593 -11.775198 0.61010754 -0.29658443 0.73471522 0.055631105
-6.9756689 -65.516716 -11.962834 0.61010754 -0.29658443 0.73471522 0.055631105
5.3868327 -45.832733 -29.444731 0.93852836 0.17463626 0.29776952 0.00012101038
19.327024 6.3123221 -46.160706 0.2615892 -1.1780492 0.047649574 0.0080993297
18.405239 5.9210773 -46.106556 0.50411499 -0.87340671 -0.055741686 0.0056600305
18.328577 5.8847423 -46.032192 0.51762444 -0.80019808 0.31372523 0.005491857
18.239332 5.8665018 -45.959793 0.49718815 -0.71257079 0.55278605 0.005531963
17.07493 4.8720083 -45.546665 0.081673004 0.48549858 0.87592989 0.0041245203
16.923826 4.718184 -45.394352 0.88227046 -0.53182781 0.36544505 0.004689937
10.221642 20.077145 -21.750937 0.27655202 -1.1160275 0.13995738 0.0077854781
7.659605 18.069853 -20.774681 0.71211964 -0.77704781 -0.55152977 0.0027713119
-1.4025714 -19.958731 -21.53941 0.18850462 -0.90357226 -1.1866071 0.0090904227
-1.4717774 -20.118811 -21.410042 0.10933213 -1.1380554 -1.1716179 0.0072462149
-1.5782808 -20.28586 -21.238796 -0.060647499 -1.3263706 -1.2276655 0.0072462149
-2.0959122 -21.94939 -19.487291 -0.81129444 -1.1797093 -1.3655599 0.0036277731
-0.75003314 -23.116879 -17.895123 -0.32450408 0.49082392 0.84599829 0.0032790254
0.10139195 -23.288397 -17.436422 0.40348309 -0.41031832 -0.96472895 0.003687293
1.7941713 -23.637144 -16.643669 -0.36625344 -0.71627682 0.59971327 0.0047445018
-14.572312 -55.637871 7.4019356 0.10549371 0.21776228 0.97028381 0.0017768489
-14.504306 -55.722095 7.413444 0.10549371 0.21776228 0.97028381 0.0017768489
-11.999483 -60.897156 0.50498909 -0.030204089 -0.96162415 0.45453268 0.11038769
2.1235037 -43.961746 -22.175667 0.95152718 -0.23786557 0.19497694 0.030907759
-6.8425975 -64.894287 -11.822081 0.61010754 -0.29658443 0.73471522 0.055631105
20.502747 6.2207642 -45.57555 -0.2487036 -0.96223545 0.11320025 0.0033156846
20.439362 6.2686548 -45.518013 -0.46786013 -0.83819252 0.5971998 0.0033156846
19.204422 6.2856383 -46.057911 0.34087965 -1.2669539 0.070365623 0.0079511041
18.38603 5.9176874 -46.038277 0.51382595 -0.84119076 0.26023394 0.0056600305
17.215757 5.0200844 -45.586666 0.84541416 -0.63028955 0.32449204 0.0034150607
27.927319 31.434826 -32.001808 0.40374619 0.15431002 0.9017635 0.0072255894
9.5646505 19.809097 -21.784258 0.65539461 -1.1238488 0.3442944 0.0062749614
-2.1194961 -21.631472 -19.796604 -0.63712317 -0.90491354 -0.83209467 0.0018433847
-2.0146544 -22.262789 -19.098072 3.2440209 2.1485279 1.6637222 0.0020591044
-1.0753859 -23.03252 -18.041681 0.026646659 1.04251 0.51964438 0.0053033833
0.066325746 -23.268263 -17.462955 0.29146016 -0.58774006 -0.82659894 0.0035433439
0.46364096 -23.316933 -17.284369 -0.21514396 0.70702314 0.738316 0.0027531334
0.46385252 -23.370153 -17.225876 0.1347803 -0.83679652 -0.55142117 0.0032738701
1.2618101 -23.598339 -16.921591 -0.58537126 0.089927115 1.2907338 0.0029097993
-9.4677305 -63.657558 -6.552063 0.26830259 -0.96096534 -0.86278468 0.058355663
-9.2555733 -63.506397 -6.7798686 0.022466647 -0.99357015 -0.1599348 0.058355663
37.502735 32.221195 -48.370743 0.34225655 -0.49963233 1.2409329 0.0054670251
37.57692 32.955482 -48.330658 0.80468988 0.035704017 0.62563139 0.003651931
37.498283 33.070614 -48.231895 0.89350384 0.065865941 0.48606724 0.0049464707
21.062153 6.1064115 -45.239864 -0.29591528 -0.97119826 0.19905978 0.0081581352
20.567978 6.2077718 -45.604561 -0.16475806 -1.0132835 -0.11995608 0.0036912609
49.200909 70.555298 -55.525227 0.88803118 0.30909434 0.34038407 0
15.981687 3.7702379 -44.58493 0.90412647 -0.72297788 -0.20496182 0.007780184
28.949648 33.90976 -33.088284 0.88379383 -0.02405348 0.46725786 0.023897514
10.438519 20.155558 -21.810833 -0.3111726 0.9915455 0.61921751 0.013918032
8.6188669 19.089048 -21.471146 0.68617344 -0.73094559 0.12436698 0.00096024323
0.26211524 33.691021 2.4067223 0.39526457 -0.81857038 0.45510268 0.0069612595
-1.504719 -20.290062 -21.108614 1.2134446 -0.27363455 0.53636128 0.0072462149
-1.6359814 -20.441805 -20.94099 1.0660689 -0.34901732 0.3147192 0.0027334325
-1.7404288 -20.567072 -20.805187 1.2933078 -0.2267338 0.69134808 0.0031201565
-1.9749793 -21.004526 -20.462646 0.43116006 -0.70662147 -0.65413278 0.001632107
-2.0127153 -21.096882 -20.391712 0.36854446 -0.67665803 -0.72981578 0.0015822438
-0.77839243 -23.090326 -17.921721 -0.3404803 0.45186129 0.84429502 0.0035284711
-0.418264 -23.196722 -17.690935 0.23774482 -0.67408854 -0.71456009 0.0027291945
-0.086214744 -23.244471 -17.531168 0.18674038 -0.75684988 -0.68775225 0.0029391064
0.26836556 -23.293674 -17.370539 0.26499632 -0.59712327 -0.78316081 0.0028448394
1.329713 -23.554335 -16.879057 -0.47671139 -0.45120034 0.8015728 0.0029097993
2.0155487 -23.679054 -16.566528 -0.34219903 -0.59279358 0.74037725 0.0047026994
2.04565 -23.77286 -16.58218 -0.4605917 0.013774881 1.3206797 0.0056803832
-10.891624 -45.992058 3.0427341 0.46354514 0.12912476 1.3753856 0.041947339
-10.848329 -46.057755 3.0389562 0.77487016 0.54968297 1.0293474 0.041947339
22.11834 5.8981009 -44.594818 0.025262935 -0.94175643 -0.42820486 0.060291007
38.405304 33.16869 -49.406822 0.81076115 -0.022680962 0.58493757 0
20.524061 6.2422152 -45.49432 -0.41046399 -0.85338348 0.48512036 0.0039439471
20.037933 6.3120456 -45.828503 -0.11661028 -1.017072 -0.0073890327 0.004824724
37.302376 34.786022 -46.612595 0.91415435 -0.24586754 0.32229012 0
19.38596 6.3301582 -45.990078 0.1902077 -1.197639 0.048627008 0.0080993297
50.74514 72.746574 -58.45874 0.16367196 -0.71445066 0.68027329 0.0088980189
17.923594 5.6308575 -45.952095 0.71552014 -0.77081895 0.48599258 0.0060348194
50.188091 73.0718 -57.925755 0.75437742 -0.27016795 1.431935 0.0051992182
48.92403 72.310318 -56.790108 -0.13369314 -0.24621686 0.95994967 0.019018404
16.767035 4.5431957 -45.2379 0.8286534 -0.43053225 0.4370881 0.0043577249
26.097349 33.807613 -27.63802 0.61221081 0.52171862 0.92039692 0.009181709
25.9774 33.762497 -27.513062 0.75253934 0.28976062 0.69289774 0.009181709
13.479447 19.55751 -20.398954 -0.21880949 -1.1020876 -0.21975338 0.010362322
12.56979 19.732042 -20.757988 -0.14563216 -1.0343443 -0.037169192 0.010718783
10.951225 20.185581 -21.694008 -0.15222949 1.0143189 0.66635144 0.020242855
10.863066 20.135969 -21.624142 -0.11746435 1.2602798 0.53326422 0.019315021
9.7740593 19.878 -21.901182 0.47484487 -1.0562177 0.41546246 0.0060992888
-7.8736844 -10.43531 5.8172393 -0.456047 0.11537907 0.91519445 0.0024410479
-5.6479945 -10.928497 6.8887072 0.87047184 0.089848593 -0.48394835 0.0069561168
-1.3013217 -19.865601 -21.525274 1.0743308 -0.29293251 -0.15332095 0.0090904227
-1.4805262 -20.231956 -21.286743 0.36728105 -0.95168424 -0.71423388 0.0072462149
-1.5056344 -20.275114 -21.240442 0.35825461 -0.9709177 -0.68262494 0.0072462149
-1.6572798 -20.441042 -21.071035 0.40326262 -0.94442201 -0.66912526 0.0039828913
-2.039458 -21.325584 -20.143511 0.22300689 -0.76105458 -0.69723856 0.0023851136
-2.0686145 -21.485254 -19.977598 -0.1605268 -0.70634085 -0.68944269 0.0022363695
-2.0634828 -21.919039 -19.452143 2.5727856 0.56502342 0.26729825 0.0036277731
-2.0575554 -22.021555 -19.436218 0.54007393 -0.44907084 -0.74872786 0.0036277731
-2.0637259 -22.056307 -19.376415 1.4335163 -0.22552237 -0.29411456 0.0053027109
-1.1620405 -22.961737 -18.148447 -0.13001177 0.68353206 0.72364908 0.0071088625
-1.1617903 -22.983892 -18.12319 -0.040710837 0.83766508 0.60975838 0.0071088625
-0.83086264 -23.065454 -17.957985 -0.28948623 0.55318302 0.80525929 0.0041328566
-0.20669319 -23.240129 -17.575586 0.26846948 -0.67211628 -0.83146667 0.0030330028
1.0524497 -23.471947 -16.996634 -0.40183657 -0.82401812 0.40284801 0.0040716948
1.0914969 -23.500761 -17.002916 -0.5202859 -0.65224534 0.68002516 0.0040716948
1.3052995 -23.513254 -16.770258 -0.25237298 -1.5326933 -0.20878822 0.0031440265
1.9762491 -23.646893 -16.545931 -0.27994952 -0.92841852 0.44336095 0.0047026994
2.0343702 -23.71623 -16.578392 -0.39118004 -0.30721062 1.0001237 0.0051757377
-14.729493 -55.647106 7.4210982 0.10549371 0.21776228 0.97028381 0.0017768489
-12.09426 -60.847469 0.59404504 0.031587124 -0.95635575 0.58166671 0.11038769
-7.3251839 -65.329643 -11.597081 0.61010754 -0.29658443 0.73471522 0.055631105
57.238579 56.131889 -80.411575 1.5041077 0.19180435 1.1234925 0.10108772
40.711262 31.182486 -54.762985 0.87965041 -0.29924834 0.38609001 0.0029948975
40.895748 31.734283 -54.918129 0.8393833 -0.25547495 0.47975847 0.005047156
22.321671 5.8932586 -44.612522 -0.069999479 -1.0822518 0.35706648 0.060291007
20.658966 6.233645 -45.398556 -0.49651417 -0.75494546 0.65224749 0.0060290615
18.97451 6.2092605 -46.092331 0.43696907 -1.138895 0.26613307 0.0077750748
18.913248 6.1948075 -46.037514 0.42250404 -1.0794623 0.13202539 0.0077750748
18.192352 5.8368549 -45.945446 0.58144093 -0.81861109 0.37585932 0.0078873802
16.535931 4.1138372 -45.134224 0.75279415 -0.51330012 0.41485199 0.0092253573
16.468651 4.1279798 -45.009518 0.7722652 -0.40646783 0.51093036 0.0092253573
16.251583 4.0511684 -44.783104 0.79459602 -0.33321127 0.57015127 0.0097398972
36.52562 36.294537 -44.497433 0.86239034 -0.36426002 -0.35156444 0
49.422504 70.728867 -56.250732 0.85161626 0.38003364 0.36100435 7.0490212e-05
49.415947 73.40641 -55.999653 -0.0172702 -0.89029223 0.45506212 0.03509051
13.068828 19.661289 -20.618652 -0.078693703 -1.1926022 -0.35347131 0.010362322
-7.5304527 -10.49707 5.9773979 -0.42113355 0.10804784 0.90496308 0.0023945502
-1.1936483 -22.863609 -18.209723 0.34249309 -0.3848736 -1.1938039 0.0094817467
-0.90347683 -23.010733 -18.022982 -0.32783848 0.45772797 0.82651985 0.004531478
-0.89141071 -23.026581 -18.005655 -0.32171738 0.47720027 0.82527071 0.0041328566
-0.88517487 -23.047682 -17.989908 -0.28576353 0.55462801 0.80624729 0.0041328566
-0.59585357 -23.150997 -17.81382 -0.35156092 0.41922125 0.85388505 0.0029051697
-0.31467906 -23.161739 -17.695963 0.035837632 -0.9242363 -0.41429755 0.0025702196
-0.042981613 -23.237799 -17.528038 0.096149467 -0.85076737 -0.53624284 0.0031182116
0.58100545 -23.343287 -17.278158 -0.078280516 -0.93062198 -0.36533862 0.0035380863
0.59241229 -23.401688 -17.257103 -0.55249888 0.24523588 1.275323 0.0034450649
1.1077751 -23.481623 -16.925571 -0.27270269 -0.94940788 0.16333014 0.003535676
1.1560472 -23.511683 -16.955225 -0.42385006 -0.80852729 0.46166751 0.0034839513
1.411292 -23.545992 -16.804409 -0.37606663 -0.87466192 0.39280593 0.0030967144
1.4490788 -23.596766 -16.827816 -0.50385082 -0.3689357 0.91076702 0.0029527463
1.4625068 -23.636057 -16.829681 -0.56991214 -0.10201102 1.1804585 0.0029527463
1.7033876 -23.61124 -16.67017 -0.35877949 -0.84018844 0.47439528 0.0043731406
3.04475 -23.88386 -15.919257 -0.69831449 -0.7090987 -0.097651944 0.016355418
3.1135068 -23.940771 -15.997678 -0.69831449 -0.7090987 -0.097651944 0.016355418
3.1335707 -23.962614 -15.982534 -0.69831449 -0.7090987 -0.097651944 0.016355418
-10.654439 -46.176014 3.3769472 2.984158 3.7885027 -1.6732357 0.041947339
41.412968 16.606783 -64.475586 -0.41199523 0.034321491 0.91053939 0
41.390064 16.75083 -64.491379 -0.41199523 0.034321491 0.91053939 0
44.352505 23.219616 -65.733536 0.96122694 -0.27091801 0.051441319 8.0162201e-05
44.426456 23.481495 -65.842903 0.84309077 -0.0038260131 0.53775769 1.9356014e-05
44.542522 23.832266 -66.022377 0.84309077 -0.0038260131 0.53775769 1.9356014e-05
41.101738 29.41457 -56.398628 0.93356532 -0.14333443 0.32849824 0
41.720528 30.751389 -56.993397 0.86162746 -0.29211301 0.41505197 0.00059346756
22.024685 5.9107943 -44.766815 -0.47748569 -1.1356686 0.51344728 0.060291007
21.962454 5.9454007 -44.708439 -0.28977379 -1.0286441 -0.040649232 0.060291007
20.951471 6.1315331 -45.293236 -0.44495329 -0.8262623 0.44425496 0.0074934708
20.442381 6.2323575 -45.606434 -0.24182849 -0.96401846 0.11288701 0.0033156846
20.393639 6.2569513 -45.576321 -0.37442458 -0.88881189 0.40682808 0.0033156846
19.289667 6.3049469 -46.026451 0.26509017 -1.2145561 0.014013061 0.00689789
19.262453 6.2999625 -46.041523 0.27718082 -1.2011764 0.040257089 0.007472029
18.549181 6.0465937 -45.967064 0.47068289 -0.87514901 0.47927523 0.004494275
17.899765 5.636735 -45.887367 0.71931392 -0.85806859 0.29053682 0.0048296424
16.44766 4.0631738 -45.039528 0.74880648 -0.51453918 0.42136544 0.0092253573
50.391682 72.921646 -58.189831 0.16367196 -0.71445066 0.68027329 0.0088980189
49.604313 73.322968 -57.506504 -0.31414327 -0.93673146 0.15442847 0.00035299725
26.24427 33.766308 -27.686165 -0.0074351071 0.075307049 1.8483368 0.013229993
24.826466 37.19598 -23.267012 0.67771947 0.083095931 0.73061031 0.0028952956
12.828495 19.714439 -20.754509 -0.0040597287 -1.265125 -0.49931809 0.010362322
11.272068 20.089802 -21.471703 -0.062243037 1.2095251 0.6819647 0.024190364
9.0801697 19.48004 -21.723465 0.57891089 -0.81378341 -0.063241467 0.0033377274
-9.1164389 -10.125999 5.1887422 0.33590975 -0.48094803 -0.88728571 0.0019720364
-0.53265768 -23.118776 -17.798805 -0.43531835 0.25156108 0.88354141 0.0029869797
-0.48574138 -23.116425 -17.791016 -0.22168203 0.6819613 0.69745034 0.0028830278
-0.22769675 -23.191031 -17.636259 0.095512949 -0.84914786 -0.52304667 0.0025192357
-0.19141936 -23.190035 -17.632341 0.056383356 -0.89030486 -0.45257726 0.0027472437
0.057902962 -23.241034 -17.490034 0.18023764 -0.73660135 -0.65753561 0.0035433439
0.40818658 -23.26263 -17.432802 0.25962138 1.4481249 0.11801686 0.0029240341
0.42164016 -23.269121 -17.393894 0.16532576 1.3225993 0.25619292 0.0031878147
0.58197927 -23.335938 -17.186455 -0.32898894 -1.6469797 -0.09812215 0.0034450649
0.62543952 -23.350391 -17.212332 -0.40450132 -1.0244355 0.35241306 0.0034450649
0.88485038 -23.428904 -17.070406 -0.32760811 -0.92377263 0.21701099 0.0036222816
1.1238291 -23.48078 -16.907927 -0.23762205 -0.9883666 0.088888004 0.0034214135
1.4471329 -23.571653 -16.813379 -0.44221032 -0.61247253 0.66571069 0.0029527463
1.7435327 -23.670208 -16.693596 -0.4652946 -0.30477315 0.96750861 0.0043731406
1.9963137 -23.673529 -16.570969 -0.33995903 -0.62463969 0.70986205 0.0047026994
2.0104368 -23.695484 -16.579338 -0.37505773 -0.44118261 0.87153298 0.0047026994
-8.3224964 -41.963135 0.31669834 -0.61917561 -0.7092973 -0.3369256 0
-12.580997 -60.786995 0.41885844 -0.6320647 -0.94418389 -0.35481837 0.11038769
-8.9219971 -63.543625 -6.9469895 -0.0021164308 -1.038528 0.66865116 0.058355663
40.343853 14.997679 -63.753777 0.82979941 0.012884574 0.71753448 0.0596352
40.057636 14.933734 -63.531002 1.3395607 -0.57246435 0.40176424 0.032705311
40.426147 15.427994 -64.006012 1.3772789 -0.35112399 -0.70390207 0.071788579
41.610409 17.889933 -64.51709 1.0038406 -0.47915131 0.12270136 0.066750608
41.377098 18.034912 -64.236374 0.82808763 0.58121759 1.3660611 0.066750608
43.347878 21.117496 -65.393143 0.81313711 0.16738853 0.55748469 0.00012766694
43.333691 21.309523 -65.430107 0.81313711 0.16738853 0.55748469 0.00012766694
41.337543 30.507675 -56.339417 0.87483287 -0.2950615 0.38419545 0.00010350344
20.736771 6.1737871 -45.43396 -0.35273838 -0.89940393 0.26548365 0.0060290615
20.694967 6.2176385 -45.389793 -0.48119411 -0.7729224 0.60068554 0.0060290615
20.225309 6.2812648 -45.72007 -0.20069031 -1.0220249 0.068674847 0.0045755771
20.124256 6.317873 -45.649067 -0.27648214 -1.0812296 0.33163309 0.0046450831
19.657099 6.344851 -45.984943 0.037016127 -1.129828 -0.085878834 0.0062480015
19.622072 6.3453026 -45.989452 0.049473077 -1.1380016 -0.061372112 0.0063272947
40.502502 31.80514 -54.237385 0.85088241 -0.14174414 0.5058732 0
39.505547 32.597843 -51.933739 0.70049715 -0.71042395 -0.06783513 0
38.627304 33.775539 -49.690998 0.81076115 -0.022680962 0.58493757 0
37.249153 34.063038 -47.01318 0.91415435 -0.24586754 0.32229012 0
49.283318 70.44397 -55.63913 0.88803118 0.30909434 0.34038407 0
49.283955 73.331886 -55.611748 -0.093342975 -0.80343294 -0.58803278 0.052505691
48.897144 72.908844 -55.124893 0.86283833 -0.49450591 0.10475674 0.0092619071
13.500158 19.565275 -20.434568 -0.12893222 -1.2196623 -0.48821253 0.010362322
13.425984 19.576555 -20.348198 -0.39005816 -0.87134612 0.31238332 0.010362322
12.766797 19.735178 -20.805178 0.033489421 -1.3122121 -0.60523343 0.010362322
9.1812458 19.565361 -21.712822 0.63515818 -0.80320501 0.22519384 0.006572397
1.0349262 -23.461538 -16.988764 -0.33980528 -0.91295999 0.26010558 0.0040716948
1.0892568 -23.515455 -17.016453 -0.58329183 -0.56320047 0.82193077 0.0040716948
1.310896 -23.520102 -16.853115 -0.38547295 -0.92224652 0.37340036 0.0029097993
1.3320556 -23.542364 -16.86883 -0.44548652 -0.61021912 0.65732676 0.0029097993
1.5151092 -23.557877 -16.685007 -0.27246475 -1.3969275 -0.051341418 0.0034952122
1.5936731 -23.60091 -16.741272 -0.41765329 -0.64858019 0.63658458 0.0034952122
2.1345146 -23.67066 -16.508612 -0.22139052 -0.84674507 0.5518747 0.0064401021
-8.4451027 -41.82151 0.24386618 -0.61917561 -0.7092973 -0.3369256 0
-8.3703041 -41.858051 0.18333341 -0.61917561 -0.7092973 -0.3369256 0
40.78429 15.569831 -63.777279 0.87244797 -1.8109462 -1.3790579 0.084158264
42.068596 18.46829 -64.4841 0.92197388 -0.71880901 -0.047311481 0.077351615
44.123413 22.366701 -65.947624 0.27602693 -0.30527839 0.91138041 0
22.514286 5.9075346 -44.379162 0.75928009 -0.82243884 -0.84498751 0.060291007
21.949907 5.8166957 -44.546551 0.27446082 -0.75872636 -1.4033085 0.060291007
20.960716 6.1569653 -45.248592 -0.52536535 -0.75040376 0.65058118 0.0074934708
20.502571 6.2194514 -45.598301 -0.19576299 -0.99162811 0.00031563352 0.0033156846
20.448175 6.2482772 -45.54509 -0.38643751 -0.88383323 0.42051682 0.0033156846
20.406624 6.2737336 -45.536476 -0.46220851 -0.84035856 0.59200281 0.0033156846
19.966776 6.3199468 -45.864895 -0.083996303 -1.0133431 -0.02571189 0.004824724
41.757938 29.794533 -57.735588 0.83607054 -0.3106266 0.45221367 0.00017151535
39.501129 30.712147 -52.951893 -0.012260951 -0.73978925 0.67272699 0
39.392067 30.789295 -52.869041 -0.012260951 -0.73978925 0.67272699 0
38.11031 33.374153 -49.025211 0.78480887 0.01152298 0.61963075 0.00039978244
57.716717 72.988235 -71.810455 0.96826029 0.17367715 0.17974496 0
37.405434 34.773232 -46.914669 0.91415435 -0.24586754 0.32229012 0
36.408745 35.93652 -44.48196 0.85370725 -0.25002298 0.45680678 0.0025687257
49.613415 72.114563 -56.734203 -0.31336787 -0.94880372 0.039649833 0
48.677631 73.63472 -55.894882 -0.24386798 -0.96970093 0.014441824 0
28.976267 39.417019 -29.556274 0.86433142 -0.50166678 -0.035519186 0.00011814159
28.594927 38.746067 -29.359455 0.86433142 -0.50166678 -0.035519186 0.00011814159
9.4665279 19.746622 -21.790979 0.64457124 -0.99556422 0.37829551 0.0061964821
-10.146078 -6.9589744 1.5960051 0.74840361 0.20411943 0.92332375 0.0072836019
-10.277956 -7.1507649 1.7740492 0.7781955 0.59523916 1.0807295 0.0072836019
-6.5943937 -10.664597 6.4301829 -0.65272564 0.14333884 1.2496099 0.0077989339
-14.22444 -54.857426 7.1889567 0.10549371 0.21776228 0.97028381 0.0017768489
39.986271 14.152531 -63.416805 0.36061332 0.78057104 0.91160375 0.017944453
39.758781 14.11737 -63.158302 0.78827173 0.039184853 0.6140784 0.012791724
40.00919 14.751527 -63.535866 1.0638851 -0.27369288 0.48331308 0.016751846
41.466022 17.490086 -64.474937 1.2419423 -0.19308066 -0.021750476 0.013488017
41.585293 17.936214 -64.803299 1.0812551 -1.0787495 -0.55093449 0.066750608
22.221584 5.8989244 -44.593861 0.0038764083 -0.99836922 -0.10526835 0.060291007
41.694523 30.121862 -57.375111 0.86242098 -0.27267092 0.42684233 0.00025334454
54.411808 49.955009 -78.463501 -0.43539932 0.56487054 0.70096272 0.011371799
40.573681 30.54361 -54.999561 0.87246883 -0.29325601 0.39089519 0.0081377067
40.726192 30.861446 -55.115726 0.88550919 -0.26554704 0.38125879 0.0031502892
58.461849 59.077835 -81.737221 -0.31403795 -0.89050996 -0.32919928 0
36.395309 35.90033 -44.408642 0.86239034 -0.36426002 -0.35156444 0
49.518452 73.321823 -57.688126 -0.31414327 -0.93673146 0.15442847 0.00035299725
48.706074 72.834129 -54.337402 0.97863054 0.096400157 0.18162934 0
9.7465601 19.882767 -21.853956 0.47885793 -1.0368419 0.35818553 0.0060992888
-10.572406 -9.3214178 3.9772718 1.1437289 1.2450188 0.81801987 0.0025660235
-9.7550468 -9.9759417 4.8553629 0.43432102 -0.42132276 -1.011024 0.0060058134
-8.2500858 -10.327483 5.6153264 -0.4117606 0.20313905 0.89068127 0.0014766903
-7.2745171 -10.467688 6.1022267 -0.47028056 -0.05059224 0.88599408 0.0032125707
-6.7721672 -10.657978 6.3425684 -0.39086509 0.14622326 0.92900884 0.0067542717
-12.112354 -60.822441 0.63308215 0.070534348 -0.95368648 0.65773571 0.11038769
40.51186 14.800141 -63.810249 0.92495871 0.91546339 1.2088335 0.0596352
40.132389 15.112775 -63.541721 1.581606 -0.64462632 0.353773 0.043132309
41.798832 18.196014 -64.869614 1.1777498 -0.54048991 -0.3823534 0.062147845
41.754833 18.114269 -64.560097 0.67793316 -0.56854427 0.47446284 0.066750608
41.365822 18.070518 -64.244904 0.79722536 0.60257417 1.4277163 0.066750608
44.795986 24.168564 -66.402161 0.8281889 0.0042280369 0.56043315 5.9106424e-05
22.338306 5.8894296 -44.499382 0.31529471 -0.91645497 -0.46512038 0.060291007
41.591232 30.348938 -57.038731 0.85795486 -0.29622898 0.41976508 0.00030213871
53.310974 46.829037 -77.074318 0.79761046 -0.63056362 -0.61095715 0.02783302
53.428982 47.581772 -77.367493 0.94413614 -0.35989913 0.035393853 0.01158356
40.501617 30.807058 -54.641075 0.87246883 -0.29325601 0.39089519 0.0081377067
57.098221 56.337914 -80.583611 0.97542018 -2.7290964 -2.2472959 0.083475024
39.342869 31.344107 -52.259819 -0.012260951 -0.73978925 0.67272699 0
37.415714 33.077557 -47.920296 1.0987113 -0.22111231 0.050347444 0.0049464707
11.036773 20.874451 -21.762939 -1.563198 -0.54397994 0.67093968 0.038649973
10.059492 20.032206 -21.77725 0.361581 -1.1032345 0.23854126 0.0092428997
9.0099716 19.426504 -21.666313 0.56018865 -0.8680892 -0.21798077 0.0030496372
8.9300318 19.355709 -21.587303 0.60016096 -0.79688638 -0.070453905 0.0011949771
8.8590374 19.298748 -21.509781 0.64840877 -0.76768637 0.08012858 0.0012456834
3.8044908 33.542316 3.5152988 0.21739 -0.70046073 -0.75807285 0.00082717487
1.6166803 33.950527 2.601259 -0.041137442 -0.98989189 -0.17089608 0.005969129
-10.853526 -8.5992603 3.1999428 0.34950942 -0.81834918 -0.56915867 0.0039126165
-8.9918652 -10.137737 5.2387352 -0.32422969 0.47240844 0.86071682 0.0018377649
-8.1068525 -10.277795 5.6680298 -0.38305348 0.29001033 0.88329566 0.0016042574
-8.099143 -10.387159 5.6985512 -0.42656732 0.15670563 0.89683628 0.0018337737
-7.6520305 -10.502692 5.9242301 -0.42718732 0.089214876 0.89989227 0.0024334672
42.301731 18.970612 -64.96048 0.85914642 -0.26599887 0.43716359 0.042796224
11.217243 20.077332 -21.453732 -0.038855188 1.3134915 0.63316697 0.022566484
10.571599 20.146473 -21.735001 -0.27696168 1.2738461 0.46919015 0.015825437
9.6544304 19.870245 -21.734631 0.52289706 -1.03036 0.20670088 0.006041897
8.3917732 18.914688 -21.29261 0.59867084 -0.81117135 0.0036257987 0.00068560307
8.2934246 18.837126 -21.208204 0.56922716 -0.90239745 -0.16725063 0.0013651197
8.2381029 18.799381 -21.136412 1.5104812 -1.1614945 0.51438886 0.0022964417
4.0504441 33.438446 3.6941612 0.14256704 -0.80091524 -0.5969851 0.00082717487
1.9953656 33.86993 2.7888756 -0.16188066 -0.97895771 -0.19017601 0.0058381995
-0.98396659 32.82988 2.6755004 0.63490272 -0.65618998 0.40781522 0.00024881435
-10.776952 -8.7613621 3.4088793 0.4882744 -0.65771389 -0.72629368 0.0025917378
-9.4890833 -10.005825 4.9793763 0.28959778 -0.57476687 -0.81636548 0.0032864534
-8.6630163 -10.202448 5.3974557 -0.31596515 0.47641337 0.83572352 0.0022326624
-8.6642027 -10.249904 5.4178643 -0.39402875 0.30679837 0.94389576 0.0022326624
-7.8458424 -10.407761 5.8249331 -0.41363281 0.22124267 0.89055479 0.0022641912
-7.4399343 -10.494672 6.0192657 -0.43074185 0.077679932 0.90224981 0.0023269325
-6.6494527 -10.606018 6.4203205 -0.45908263 -1.2000654 0.40582293 0.0084926067
-6.6341724 -10.711478 6.4246001 -0.79762489 0.72879308 1.7225415 0.0077989339
11.688325 19.948729 -21.246428 -0.30096552 -0.96051627 -0.029382464 0.011331833
11.04336 20.102518 -21.524008 -0.089646824 1.3029076 0.59180337 0.022239378
10.453299 20.122032 -21.74085 -0.30318588 1.1694877 0.54733044 0.013918032
10.394307 20.114132 -21.722904 0.210896 -1.2155646 0.060503494 0.0078884251
9.4999914 19.791632 -21.68314 0.54058444 -0.92776662 0.054802768 0.0061964821
8.4261475 18.934702 -21.336546 0.67765665 -0.73699623 0.1316607 0.001176271
4.3048315 33.336617 3.9328015 0.87106067 -0.46570173 -1.0845945 0.0020074481
1.5404694 33.997551 2.4251275 -0.094297878 1.0563464 0.44663268 0.012817089
0.10901303 33.599831 2.3636336 0.5598408 -1.0056902 0.23229291 0.005181612
-10.07709 -6.8972731 1.5254908 0.80390298 -0.23613201 0.5663361 0.0072836019
-10.189929 -7.0307102 1.6513085 0.7948485 0.19600728 0.8250128 0.0072836019
-10.274781 -7.1776447 1.7852184 0.83301318 0.40415278 0.86372411 0.0072836019
-10.798354 -8.7004919 3.3378928 0.39486921 -0.69101906 -0.69873816 0.0025917378
-9.6824369 -9.9394989 4.8655777 0.31023979 -0.52061242 -0.90849733 0.0060058134
-8.9501534 -10.125168 5.2455721 -0.26550165 0.57563305 0.78279471 0.0018377649
-8.5732946 -10.228039 5.4456601 -0.33480841 0.44127053 0.85555577 0.002453391
-8.2046289 -10.291627 5.627398 -0.39480513 0.26891258 0.87860948 0.0017303437
-7.8380365 -10.458691 5.8367238 -0.47477412 0.06261757 0.92385173 0.0022641912
-7.4713998 -10.453153 6.0017142 -0.44871858 0.021154784 0.89356667 0.0023269325
-7.104311 -10.55516 6.1856771 -0.44834825 -0.030776072 0.8958506 0.0042590927
-6.76402 -10.576264 6.3800693 -0.57066572 -1.1839626 0.62344253 0.0077417679
13.453337 19.573851 -20.443638 -0.14507684 -1.1868461 -0.40408614 0.010362322
12.84112 19.694546 -20.688284 -0.10133539 -1.1360104 -0.20304611 0.010362322
11.595547 19.978651 -21.158098 -0.32123587 -0.96048939 0.041503869 0.011331833
11.086486 20.087606 -21.485476 -0.065055169 1.3402807 0.58631623 0.022239378
10.501179 20.132301 -21.738415 -0.28273788 1.1479679 0.5624277 0.015422924
10.449053 20.120325 -21.739159 -0.30934706 1.2345599 0.49390966 0.013809054
7.3028216 17.424099 -20.447289 0.82256103 -0.64408499 -0.23273452 0.00096061901
7.1552081 17.181349 -20.242565 0.88761485 -0.44106287 0.13267805 0.00037277889
2.0709114 33.902233 2.6545336 -0.015957735 -0.93225241 -0.42195275 0.0065594842
1.0937026 33.998672 2.2616813 -0.28116944 0.99765009 0.43676972 0.0078564193
-10.1127 -6.9220972 1.5617712 0.74990582 0.085643835 0.8543843 0.0072836019
-10.113641 -6.9574394 1.5398083 0.94419521 -0.6819365 0.035014767 0.0072836019
-10.730796 -8.9491014 3.6460302 1.3244836 1.4395157 1.0505977 0.002202257
-10.707346 -9.0807781 3.6616175 0.62750483 -1.1437143 -1.4810691 0.002202257
-9.6435938 -9.9874706 4.9065089 0.36081719 -0.50101101 -0.92358124 0.0060058134
-9.626545 -9.9964209 4.9175615 0.33721155 -0.51672041 -0.90974599 0.0051839883
-9.30863 -10.085816 5.09235 0.3476955 -0.47198963 -0.89862663 0.0025472266
-8.97575 -10.15782 5.2547922 -0.36709595 0.3978813 0.91683632 0.0018377649
-8.2806454 -10.291877 5.5929484 -0.40307319 0.22514561 0.8879624 0.0014766903
-8.2752047 -10.33172 5.6046066 -0.41670629 0.1883561 0.89290172 0.0014766903
-7.9472022 -10.37511 5.7694306 -0.40374148 0.24305108 0.88658875 0.0021580765
-7.6259208 -10.371502 5.915472 -0.41436404 0.20947699 0.89165741 0.0025703658
-7.6225963 -10.419155 5.9273558 -0.41441724 0.18190387 0.89369255 0.0023260899
-7.3019066 -10.460063 6.0889525 -0.47612831 -0.082371995 0.88314265 0.0028544753
-6.9759665 -10.537157 6.258503 -0.51000029 -0.27205566 0.87698442 0.0057966849
-6.9600306 -10.564345 6.2603855 -0.48058209 -0.17969391 0.88719958 0.0057966849
37.415039 32.976219 -48.042488 0.97250861 -0.1909762 0.27988303 0.0049464707
28.622143 33.476532 -32.608326 0.7691443 0.045769155 0.63743407 0.039708473
50.835888 72.92791 -58.290134 0.16367196 -0.71445066 0.68027329 0.0088980189
48.881317 72.972954 -56.631432 -0.66508216 -0.18941207 0.72234952 0.012532981
13.461377 19.560579 -20.354292 -0.33943206 -0.94559252 0.13655078 0.010362322
12.93819 19.680532 -20.658852 -0.091752611 -1.1586938 -0.26281834 0.010362322
12.878469 19.688332 -20.602169 -0.23879687 -0.95705456 0.20488282 0.010362322
12.825737 19.728865 -20.558773 -0.37868568 -0.76337934 0.65549803 0.010362322
11.212592 20.05978 -21.418989 -0.051472846 1.3359498 0.64138347 0.024190364
11.208542 20.096781 -21.492758 -0.055585101 1.2440426 0.65244007 0.022566484
9.1661282 19.553535 -21.697979 0.60214567 -0.79185045 0.11466063 0.0051137507
4.1965537 33.355892 3.8433223 0.68000579 -0.52331108 -1.0083773 0.0020074481
1.6713458 33.982594 2.4780886 -0.033133045 1.0705384 0.4522891 0.012817089
0.45568395 33.762074 2.3500762 0.37666619 -0.93444431 0.08790797 0.0059375372
-1.6300436 32.132408 3.0775349 0.90047824 -0.8124072 -0.13542676 0.025128407
-1.8978446 31.793018 3.3230431 0.88112926 -0.61425239 0.13869046 0.0059279357
-10.000135 -6.7120695 1.4442298 0.44459775 0.78511304 1.8600742 0.0072836019
-10.01551 -6.7515674 1.4642205 0.51589531 0.59684306 1.6113534 0.0072836019
-10.020188 -6.7889395 1.4777428 0.60715955 0.30440491 1.2643619 0.0072836019
-10.032636 -6.8259511 1.4908028 0.6916098 0.043000635 0.94839519 0.0072836019
-10.063438 -6.8669324 1.5160377 0.73542005 -0.021716643 0.82391673 0.0072836019
-10.096463 -6.9044137 1.5460165 0.7489993 0.035115395 0.82810712 0.0072836019
-10.128067 -6.9503732 1.5782447 0.78618824 0.0048907856 0.73618835 0.0072836019
-10.195148 -7.0440569 1.6595132 0.81143886 0.15623325 0.76938194 0.0072836019
-10.707521 -8.0837116 2.7303185 2.3487802 -0.61093408 0.39644882 0.0024187879
-10.752275 -8.2069445 2.8074641 2.1287119 -0.60148263 0.26348069 0.0024187879
-10.797125 -8.709301 3.3472674 0.39510414 -0.68773896 -0.70204836 0.0025917378
-10.76929 -8.7105951 3.3678155 0.58542472 -0.66480827 -0.71263796 0.0025917378
-10.777842 -8.7461643 3.3943782 0.49554923 -0.66246742 -0.72099 0.0025917378
-9.6421642 -9.9689236 4.8966656 0.32676399 -0.52229452 -0.90307784 0.0060058134
-9.3174152 -10.094456 5.0931578 0.37474373 -0.43464804 -0.93253756 0.0025472266
-8.9912415 -10.143489 5.2420039 -0.33907524 0.44660494 0.88014585 0.0018377649
-8.6834488 -10.219373 5.3981395 -0.35194039 0.39742741 0.88622314 0.0022326624
-8.6756811 -10.244952 5.4113326 -0.39072588 0.31375599 0.93949223 0.0022326624
-8.3778563 -10.291657 5.5485363 -0.41857758 0.17786086 0.89526594 0.0017509966
-7.4723873 -10.468822 6.0018396 -0.44015294 0.050160937 0.89769214 0.0023269325
-7.1933951 -10.510596 6.1427164 -0.45893341 -0.026512388 0.89198375 0.0036833403
-7.1658077 -10.545945 6.155623 -0.44114339 0.0035743341 0.89801115 0.0042590927
-6.8987164 -10.542964 6.3065586 -0.54793149 -0.57040447 0.82314241 0.0067542717
-6.85992 -10.647308 6.3033118 -0.38495716 0.19457944 0.93376499 0.0067542717
41.346157 29.756351 -56.825024 0.89654988 -0.2289888 0.37916017 0.0013604425
53.495972 47.876297 -77.386353 0.92648053 0.13248783 1.7791761 0.0039385753
58.52494 56.417988 -80.101479 0.9886803 0.14901929 -0.017450305 0
57.087032 56.133087 -81.251488 -0.14062513 -0.1794364 3.1253078 0.083475024
56.926807 56.280384 -81.140236 1.6945981 -1.9308099 1.9066806 0.083475024
11.490407 20.009584 -21.370461 -0.26545081 -0.97002739 -0.042579778 0.0099299671
11.377211 20.042198 -21.275698 -0.29642838 -0.97531939 0.079044901 0.008159942
10.878223 20.109528 -21.552835 -0.085010596 1.3893062 0.48507988 0.019315021
10.26391 20.085781 -21.754776 0.2686128 -1.1534103 0.10011541 0.0070858942
9.5066452 19.791422 -21.713249 0.58308339 -0.98441243 0.15454711 0.005708931
7.6787944 18.084635 -20.766294 0.7729888 -0.66682917 -0.29840618 0.0027713119
7.6090817 17.982151 -20.62921 0.94162828 -0.29969931 0.32036972 0.00096061901
3.8416176 33.512218 3.5551083 0.17965032 -0.74159729 -0.6929388 0.00082717487
-0.039056215 33.532345 2.4455583 0.55671519 -0.87361282 0.4110035 0.0058607669
-9.6346521 -9.9257126 4.8719316 0.23911823 -0.5788731 -0.84800392 0.0060058134
-9.6336937 -9.947979 4.8868833 0.28061625 -0.55330729 -0.87251532 0.0060058134
-9.2783537 -9.9779673 4.9731135 -0.06011172 -1.033299 -0.38849375 0.0027749599
-9.2532492 -9.9785395 4.9692926 -0.09730158 -1.0850552 -0.34212026 0.0025472266
-9.0261765 -10.078731 5.1780844 -0.14848 0.76371694 0.63682944 0.00185635
-9.0070333 -10.098641 5.2051544 0.20222509 -0.67705446 -0.70802444 0.0017717164
-8.7556505 -10.17468 5.34798 -0.32270405 0.47218552 0.83773482 0.0021712552
-8.7466717 -10.193253 5.3597898 -0.35063553 0.40496698 0.8864525 0.0024433238
-8.4580078 -10.205852 5.4771581 -0.26282734 0.60712165 0.757698 0.0020376735
-8.4485979 -10.220263 5.4921103 -0.28836834 0.55516362 0.78950495 0.0021351052
-8.1723118 -10.270739 5.6351337 -0.37773377 0.31879953 0.87315679 0.0015791336
-8.1595955 -10.329127 5.6573954 -0.42471683 0.16117591 0.89137894 0.0016636499
-7.9043212 -10.337317 5.7742395 -0.34496793 0.39566752 0.85457718 0.0021580765
-7.8909974 -10.349391 5.7851443 -0.35505608 0.36972815 0.8599757 0.0021580765
-7.8730259 -10.386383 5.8069582 -0.39393738 0.27297738 0.88042992 0.0024410479
-7.6091199 -10.370791 5.9216146 -0.40081245 0.25677308 0.88981593 0.0023260899
-7.3610168 -10.469565 6.0573463 -0.45519823 -0.0065147844 0.89102936 0.0026860919
-7.3396297 -10.465891 6.0684271 -0.46203879 -0.031174796 0.88834512 0.0026860919
-7.3218732 -10.526754 6.0787539 -0.42589098 0.079018801 0.90295881 0.0028544753
-7.3144727 -10.556358 6.0860853 -0.40460399 0.14975743 0.91202402 0.0030446681
-7.0779886 -10.524467 6.2025127 -0.48537776 -0.15207243 0.88253814 0.0042590927
-6.7974834 -10.569498 6.3552485 -0.55123281 -0.64929539 0.81860858 0.0067542717
-6.7663827 -10.624895 6.3459764 -0.45614439 -0.18541968 0.8837865 0.0067542717
-6.7622843 -10.667501 6.3486676 -0.37212789 0.26660874 0.95112514 0.0072091129
43.386818 21.354231 -65.521019 0.81313711 0.16738853 0.55748469 0.00012766694
43.5825 21.851437 -65.95565 0.61339998 -0.63349164 -0.47162357 0.0036830155
53.21204 47.005196 -77.257561 0.76122272 -0.81275672 -0.97586942 0.012414407
28.558132 33.539246 -32.535591 0.7691443 0.045769155 0.63743407 0.039708473
28.990059 39.444008 -29.601851 0.86433142 -0.50166678 -0.035519186 0.00011814159
13.261814 19.676435 -20.355398 -0.55727029 -0.61208445 0.9362182 0.010362322
10.55591 20.144127 -21.741154 -0.27284399 1.2490072 0.47138524 0.017193921
9.9110403 19.985493 -21.744381 0.47023043 -1.2161185 0.25888032 0.0064700097
9.1593208 19.552622 -21.582573 0.60896474 -0.79145706 0.1093298 0.0040013096
9.1286583 19.540529 -21.536562 0.6411525 -0.77959383 0.24569975 0.0033377274
7.4942212 17.751846 -20.522535 0.91343373 -0.37488493 0.22059186 0.00096061901
7.4097896 17.656967 -20.388649 0.95103055 -0.24080697 0.51944011 0.00096061901
4.333725 33.427414 3.7980702 -0.044805784 -1.2402848 0.12716952 0.0020074481
3.4428256 33.519222 3.5128694 -0.087620497 -0.98669761 -0.30982801 0.00082717487
1.9444491 33.910675 2.6528101 -0.082125887 -0.96679461 -0.26903203 0.0049781841
-0.21092388 33.411209 2.3880761 0.49392605 -0.86772853 -0.062108763 0.0032091145
-8.5601187 -10.172047 5.4120545 -0.24441807 0.6472789 0.72485316 0.002453391
-8.0428123 -10.302142 5.7010732 -0.34364375 0.39733475 0.85293949 0.0022828628
-8.0367241 -10.322686 5.7124434 -0.3665022 0.33947191 0.86628991 0.0022828628
-7.5009212 -10.391795 5.9854956 -0.46384415 0.0042121434 0.88632381 0.0023945502
-7.4933968 -10.424198 5.9899778 -0.45317918 0.026883645 0.89106101 0.0023945502
-7.2194338 -10.506944 6.1300554 -0.45466891 -0.0071807075 0.89303339 0.00343218
-7.1998744 -10.497483 6.139854 -0.46576077 -0.038208894 0.88935429 0.0036833403
-6.9463549 -10.602277 6.2602096 -0.43294641 -0.014778832 0.90176624 0.0067542717
-6.7475767 -10.578607 6.4119596 -0.44433022 -1.8238213 0.11237498 0.0084926067
-6.6853542 -10.638634 6.3712153 -0.49061853 0.095433846 1.0147527 0.0084926067
-5.6435328 -10.87288 6.9070578 0.87047184 0.089848593 -0.48394835 0.0069561168
-5.6370654 -10.908781 6.9120255 0.87047184 0.089848593 -0.48394835 0.0069561168
54.962276 50.402828 -78.482452 -0.43539932 0.56487054 0.70096272 0.011371799
58.135967 59.383537 -82.253296 -0.31403795 -0.89050996 -0.32919928 0
10.813164 20.114281 -21.578819 -0.1150465 1.3787239 0.47972277 0.019315021
9.6336784 19.852085 -21.758648 0.55989957 -1.0760347 0.23151372 0.0055587711
4.0846081 33.409466 3.7436595 0.1099024 -0.8452152 -0.5262695 0.0012322119
3.3497696 33.604095 3.3617847 0.13616028 -0.81505907 -0.57782269 0.00059343112
1.7752236 33.916607 2.7040806 -0.11143155 -0.98307866 -0.16410412 0.0049781841
-0.26802611 33.378517 2.4487097 0.54689854 -0.84924263 0.10632114 0.0032513479
-5.5890002 -10.812646 7.0163279 0.87047184 0.089848593 -0.48394835 0.0069561168
37.124146 32.547642 -47.739193 0.88281947 -0.92881286 0.23181237 0.0054670251
37.68486 33.210655 -48.516773 0.65186095 -1.777032 -0.16985537 0.0067053004
58.513935 56.537052 -79.708244 0.9886803 0.14901929 -0.017450305 0
28.345627 33.420513 -32.434452 0.35053021 -0.46821275 0.81111366 0.022010561
13.256028 19.696758 -20.346848 -0.59871823 -0.55652672 1.0641246 0.010362322
11.157301 20.142435 -21.581917 -0.11510939 1.0936115 0.66462857 0.022239378
48.844337 72.395927 -56.779247 -0.13369314 -0.24621686 0.95994967 0.019018404
4.0549664 33.469177 3.6591191 0.20981617 -0.73391432 -0.70239407 0.00082717487
0.045504503 33.549889 2.3069012 0.43888316 -0.9009518 -0.023066903 0.0058607669
-1.9614402 31.706326 3.2737095 0.96176946 -0.7587589 -0.11539862 0.0059279357
-2.201766 31.369846 3.4991112 0.92910916 -0.66649407 0.025000043 0.0073486678
-2.4064043 31.258158 3.7615728 0.68146145 -0.086146444 0.87374341 0.0090222433
-5.5776954 -10.83098 7.0332575 0.87047184 0.089848593 -0.48394835 0.0069561168
41.906883 30.4571 -57.555462 0.83600396 -0.31106815 0.45203319 0.0001002115
53.272762 47.334354 -76.914223 0.9925226 0.045515958 0.47039935 0.01158356
53.581966 47.836426 -77.444519 0.80498278 -0.42179528 0.97897047 0.0039385753
27.5646 30.928326 -31.715981 0.26611796 0.34402457 0.90046006 0.0039131572
27.7001 31.4907 -31.909637 0.40374619 0.15431002 0.9017635 0.0072255894
13.499533 19.674791 -20.215969 -0.83760327 -0.36072019 1.3722479 0.012155607
25.789019 33.636086 -27.09733 1.0676475 -0.34253725 0.17611562 0.009181709
26.019215 34.49752 -27.410398 5.5465851 3.3855274 -6.5044107 0.013229993
28.622492 38.779728 -29.164083 0.86433142 -0.50166678 -0.035519186 0.00011814159
37.038521 61.876881 -38.362297 0.51165712 -0.030876791 0.85863471 0.003144494
4.0659385 33.439777 3.6961818 0.15476453 -0.79057479 -0.61303997 0.00082717487
2.0650289 33.900341 2.6566956 -0.052082326 -0.94090557 -0.36566895 0.0058381995
1.2513796 33.965729 2.4439762 -0.1674979 1.176698 0.32454062 0.0090773143
52.880444 46.323761 -76.88839 0.71792227 -0.58397579 -0.37889296 0.02241406
13.120949 19.684862 -20.432781 -0.46236098 -0.70326638 0.75395095 0.010362322
28.776865 33.12701 -32.76992 0.7691443 0.045769155 0.63743407 0.039708473
57.739521 72.569748 -71.528938 0.96826029 0.17367715 0.17974496 0
57.647095 73.172256 -71.61322 0.96826029 0.17367715 0.17974496 0
37.222889 60.293411 -38.317314 0.39584234 0.19390984 0.89761227 0.0019553683
37.067322 60.339233 -38.226654 0.56859016 -0.3327226 0.87937027 0.008561031
37.192123 60.84663 -38.399784 0.35256645 0.15183336 0.92338699 0.0030627428
37.15831 61.369431 -38.403362 0.38445339 -0.042411093 0.92216969 0.0056284224
4.1977882 33.39592 3.7917833 0.14588791 -0.83060604 -0.54703188 0.0012322119
2.2540848 33.830215 2.8406906 -0.028816566 -0.95152926 -0.33661962 0.0029110888
1.568694 33.957588 2.5473285 -0.014919722 1.2394589 0.32512468 0.012817089
0.78074962 33.893459 2.3664486 -0.34443164 1.2200438 0.27335206 0.0088545047
-0.1856809 33.426373 2.3756905 0.48184574 -0.87386739 -0.083310157 0.0032091145
-1.8970348 31.789354 3.2823946 0.91809362 -0.69035798 0.014423575 0.0059279357
-2.1656749 31.431839 3.5110371 0.87295562 -0.51102078 0.23444404 0.0059279357
-2.3753252 31.270742 3.7372229 0.70673531 -0.1341107 0.79730892 0.0090222433
-2.4651439 31.245398 3.7977431 0.48962173 -0.11523087 0.99135476 0.0056573399
54.449451 49.647099 -78.281456 -0.11539382 0.31127888 0.94328666 0
54.659935 50.657703 -78.922943 0.40269634 -0.66630095 -0.62759751 0
57.436329 57.25267 -81.733269 0.99284893 -0.012008881 0.11877209 0
27.491434 31.043512 -31.738365 0.26611796 0.34402457 0.90046006 0.0039131572
24.789692 37.797558 -23.301321 0.67771947 0.083095931 0.73061031 0.0028952956
36.859833 60.917011 -38.284889 0.51122516 0.038525127 0.85890269 0.0058615752
36.296715 60.701836 -37.847206 0.54177773 0.11794801 0.832205 0.013781909
22.49271 40.061295 -17.986633 -0.52738655 -0.74029404 -0.41692701 0
3.183728 33.608738 3.3078804 0.16638239 -0.87620693 -0.46993017 0.00073561847
