# .PCD v0.7 - Point Cloud Data file format
VERSION 0.7
FIELDS x y z
SIZE 4 4 4
TYPE F F F
COUNT 1 1 1
WIDTH 115
HEIGHT 1
VIEWPOINT 0 0 0 1 0 0 0
POINTS 115
DATA ascii
-7.8800936 -10.429474 5.8322492
-5.6559625 -10.929319 6.893137
-7.5508461 -10.496028 6.0183225
-9.1219978 -10.102391 5.2107568
-10.160213 -6.955081 1.5890058
-10.272762 -7.1521955 1.7766207
-6.5885248 -10.656474 6.4219265
-10.572246 -9.3214054 3.977232
-9.7561588 -9.9687414 4.8609896
-8.2370682 -10.336255 5.5859218
-7.2675166 -10.468279 6.0879803
-6.776823 -10.658309 6.351716
-10.853579 -8.5985785 3.2006149
-8.9811783 -10.17073 5.2030845
-8.1167917 -10.273236 5.6894298
-8.0970335 -10.38852 5.693841
-7.6486793 -10.503499 5.9172778
-10.775687 -8.7806368 3.3898687
-9.4892473 -10.004977 4.9801064
-8.6670828 -10.192822 5.4096136
-8.6659203 -10.245837 5.4230003
-7.8326635 -10.419266 5.7943239
-7.4421177 -10.494647 6.023623
-6.6514726 -10.607637 6.4236608
-6.6323504 -10.708957 6.4220371
-10.102153 -6.8903699 1.513081
-10.19101 -7.0304122 1.6507728
-10.281494 -7.1757956 1.7818942
-10.797922 -8.7070742 3.3314009
-9.6802311 -9.9537754 4.8544211
-8.9560881 -10.106848 5.2653689
-8.5778589 -10.217488 5.4591336
-8.2097311 -10.288332 5.6386046
-7.8457823 -10.451929 5.8547144
-7.4717498 -10.453149 6.0024128
-7.0966091 -10.555787 6.1699729
-6.7467899 -10.570397 6.3484173
-10.1351 -6.9159274 1.5506799
-10.110061 -6.9584255 1.5415809
-10.731423 -8.9491186 3.6462207
-10.707719 -9.0807886 3.6617305
-9.6448488 -9.9793453 4.9128585
-9.6230946 -10.018038 4.9008374
-9.3124266 -10.069499 5.1072893
-8.9856482 -10.127262 5.2878127
-8.287981 -10.286934 5.6095181
-8.278512 -10.329492 5.6120768
-7.9487119 -10.37379 5.7729526
-7.6279383 -10.370997 5.9196644
-7.6256781 -10.41826 5.9338264
-7.3020864 -10.460052 6.0893154
-6.9861512 -10.536214 6.279305
-6.950552 -10.565223 6.2410254
-10.001661 -6.7116494 1.4434743
-10.015136 -6.7516704 1.4644058
-10.020194 -6.788938 1.4777399
-10.027111 -6.8274727 1.4935385
-10.050936 -6.8703761 1.5222284
-10.080617 -6.9087787 1.553863
-10.110153 -6.9553075 1.5871148
-10.18517 -7.0468054 1.6644537
-10.707564 -8.0836287 2.7303956
-10.752186 -8.207118 2.8073027
-10.798815 -8.6835432 3.3726718
-10.769383 -8.7091761 3.3692153
-10.777352 -8.7536192 3.3870256
-9.6447544 -9.9521589 4.9097662
-9.3148928 -10.105298 5.0832305
-8.9852724 -10.161917 5.2220917
-8.6825151 -10.221583 5.3953466
-8.669939 -10.258545 5.3941631
-8.3796597 -10.290439 5.5526156
-7.4748311 -10.468795 6.0067167
-7.2165422 -10.507737 6.1901007
-7.1639547 -10.546096 6.151845
-6.907043 -10.543555 6.3229175
-6.8636932 -10.647576 6.3107252
-9.6355867 -9.9196615 4.8766603
-9.6327543 -9.9540577 4.882133
-9.2803211 -9.9694738 4.9808769
-9.2512388 -9.9871788 4.9613829
-9.0286665 -10.069905 5.186964
-8.9988604 -10.128241 5.1755552
-8.7596054 -10.16547 5.3594308
-8.7450676 -10.197141 5.3550625
-8.461854 -10.199228 5.4874759
-8.4433632 -10.227441 5.4787941
-8.175745 -10.268685 5.6426268
-8.1499357 -10.33354 5.6367798
-7.915947 -10.327151 5.8013592
-7.8905797 -10.349756 5.7841692
-7.8556037 -10.402249 5.7661581
-7.5968919 -10.374343 5.8959398
-7.4000072 -10.467304 6.1359372
-7.3457947 -10.465533 6.0808539
-7.3201518 -10.526864 6.075284
-7.3075166 -10.556721 6.0720878
-7.0983129 -10.522811 6.2439537
-6.7993741 -10.569633 6.3589625
-6.7639976 -10.624725 6.3412905
-6.7694001 -10.668352 6.3625193
-8.5531216 -10.188222 5.3913984
-8.0459547 -10.299187 5.7085047
-8.0326281 -10.32654 5.702755
-7.4918056 -10.392261 5.9672027
-7.4807038 -10.424847 5.9645061
-7.2054267 -10.508733 6.1013517
-7.1613069 -10.502247 6.0609035
-6.9300752 -10.60112 6.2282257
-6.7464833 -10.57773 6.4101515
-6.6827483 -10.636544 6.3669052
-5.6399393 -10.872509 6.9050598
-5.6304526 -10.908098 6.908349
-5.5951076 -10.813276 7.0197234
-5.5738263 -10.830581 7.0311065
